-18.379 18.480 0.426 74 59 30
-18.423 18.477 0.389 55 40 19
-18.410 18.478 0.359 64 49 28
-18.405 18.479 0.188 68 56 34
-18.417 18.478 0.235 59 44 23
-18.410 18.478 0.361 64 49 28
-18.416 18.479 0.123 31 27 16
-18.379 18.480 0.459 79 59 35
-18.407 18.478 0.347 64 50 24
-18.416 18.479 0.094 33 28 24
-18.410 18.478 0.429 61 49 27
-18.379 18.480 0.386 73 57 31
-18.420 18.478 0.306 52 39 20
-18.370 18.481 0.434 75 58 32
-18.414 18.479 0.193 60 48 24
-18.423 18.477 0.359 53 38 17
-18.386 18.480 0.372 71 55 30
-18.394 18.480 0.297 70 54 29
-18.395 18.480 0.292 70 54 29
-18.421 18.477 0.377 56 41 20
-18.397 18.479 0.384 69 53 30
-18.406 18.479 0.248 67 52 29
-18.417 18.477 0.421 54 41 22
-18.399 18.478 0.439 68 51 31
-18.380 18.480 0.411 73 58 29
-18.402 18.479 0.333 64 50 24
-18.419 18.477 0.399 55 44 26
-18.414 18.479 0.117 24 21 14
-18.405 18.479 0.318 66 52 26
-18.371 18.481 0.416 75 58 30
-18.388 18.480 0.324 73 56 30
-18.387 18.479 0.428 73 57 31
-18.392 18.480 0.311 72 54 30
-18.412 18.479 0.216 65 50 29
-18.407 18.478 0.361 66 51 28
-18.392 18.480 0.306 72 54 30
-18.401 18.478 0.433 68 51 31
-18.395 18.479 0.396 70 54 28
-18.410 18.478 0.299 61 48 29
-18.394 18.479 0.314 70 54 29
-18.420 18.477 0.372 57 42 21
-18.423 18.477 0.353 55 40 19
-18.379 18.480 0.436 74 58 32
-18.395 18.479 0.428 71 55 30
-18.397 18.480 0.267 68 53 30
-18.415 18.479 0.198 61 49 25
-18.413 18.479 0.221 65 50 29
-18.411 18.479 0.203 65 53 29
-18.415 18.479 0.180 60 48 26
-18.410 18.478 0.391 63 48 27
-18.418 18.477 0.359 56 41 20
-18.383 18.480 0.371 74 58 33
-18.390 18.479 0.436 72 56 31
-18.415 18.478 0.270 58 46 24
-18.397 18.480 0.219 70 54 31
-18.376 18.480 0.414 73 58 29
-18.386 18.480 0.288 74 57 31
-18.413 18.479 0.187 62 50 28
-18.378 18.480 0.445 76 59 31
-18.419 18.478 0.186 54 42 20
-18.416 18.479 0.095 33 28 24
-18.415 18.478 0.297 59 47 25
-18.369 18.481 0.459 81 59 35
-18.398 18.479 0.300 68 52 27
-18.388 18.479 0.399 72 57 28
-18.395 18.480 0.290 70 54 29
-18.407 18.478 0.344 64 50 24
-18.417 18.479 0.116 32 29 22
-18.393 18.479 0.382 71 55 30
-18.411 18.479 0.206 66 51 28
-18.410 18.479 0.203 65 53 29
-18.384 18.480 0.357 72 56 31
-18.413 18.479 0.227 63 48 27
-18.407 18.478 0.419 65 50 27
-18.401 18.478 0.432 68 51 31
-18.384 18.480 0.414 73 58 29
-18.398 18.480 0.249 69 54 31
-18.408 18.480 0.100 14 10 7
-18.420 18.477 0.335 55 43 19
-18.417 18.479 0.146 53 42 22
-18.379 18.480 0.401 73 58 27
-18.424 18.477 0.395 51 40 22
-18.422 18.477 0.381 55 40 19
-18.418 18.478 0.258 54 42 20
-18.420 18.478 0.247 55 40 17
-18.397 18.480 0.211 72 54 32
-18.414 18.479 0.096 26 22 19
-18.381 18.480 0.383 73 57 31
-18.394 18.479 0.340 69 53 28
-18.387 18.480 0.301 75 58 32
-18.420 18.478 0.248 55 40 17
-18.417 18.478 0.268 54 42 20
-18.391 18.480 0.321 72 54 30
-18.372 18.481 0.425 74 57 31
-18.417 18.478 0.204 59 44 21
-18.417 18.479 0.099 32 27 23
-18.376 18.480 0.459 79 59 35
-18.376 18.480 0.443 76 59 31
-18.402 18.478 0.437 68 51 31
-18.405 18.479 0.254 64 53 31
-18.415 18.478 0.381 60 45 24
-18.420 18.477 0.362 56 41 20
-18.420 18.477 0.382 57 42 21
-18.424 18.477 0.347 52 40 18
-18.402 18.479 0.281 66 54 30
-18.157 18.484 2.495 190 170 135
-18.094 18.485 2.590 191 168 136
-18.288 18.484 2.514 200 177 136
-18.022 18.486 2.793 182 154 106
-18.263 18.484 2.574 195 173 136
-18.049 18.486 2.778 184 156 109
-18.015 18.485 2.600 186 162 128
-18.036 18.485 2.539 189 164 134
-18.241 18.485 2.656 193 167 132
-18.159 18.485 2.674 193 163 127
-18.027 18.486 2.847 181 147 101
-17.985 18.484 2.507 187 164 133
-18.104 18.484 2.555 191 168 137
-18.244 18.485 2.642 193 167 132
-18.328 18.484 2.536 199 174 134
-18.116 18.485 2.631 194 168 131
-18.003 18.485 2.732 189 157 116
-18.092 18.485 2.686 193 163 127
-17.945 18.485 2.542 188 162 127
-18.113 18.485 2.578 192 169 138
-17.935 18.485 2.506 187 165 128
-18.315 18.484 2.622 196 168 131
-18.337 18.484 2.545 198 173 133
-18.234 18.484 2.556 200 174 139
-18.142 18.485 2.599 193 170 138
-18.277 18.484 2.516 200 175 135
-18.127 18.484 2.542 194 171 139
-17.984 18.485 2.537 187 162 131
-18.172 18.484 2.517 194 171 139
-18.106 18.485 2.727 187 158 118
-17.966 18.485 2.548 187 161 126
-18.073 18.485 2.606 190 166 130
-18.165 18.485 2.614 196 170 137
-18.087 18.485 2.682 193 162 131
-18.123 18.485 2.588 192 169 137
-18.167 18.485 2.636 194 168 135
-18.289 18.485 2.640 195 167 130
-18.183 18.485 2.730 188 158 120
-18.123 18.484 2.494 188 167 138
-18.315 18.484 2.589 199 171 132
-18.101 18.485 2.586 190 167 135
-18.003 18.485 2.660 188 163 122
-18.066 18.485 2.668 192 164 127
-18.048 18.484 2.511 186 162 134
-18.322 18.484 2.583 196 170 133
-18.205 18.484 2.497 195 172 138
-18.356 18.484 2.594 195 170 130
-18.043 18.485 2.715 190 161 121
-18.159 18.485 2.612 194 168 135
-18.110 18.486 2.778 183 155 108
-18.344 18.484 2.538 198 173 132
-18.033 18.484 2.491 188 164 136
-18.062 18.485 2.582 189 166 134
-18.067 18.485 2.651 191 165 132
-18.122 18.484 2.531 190 169 138
-18.191 18.484 2.556 198 172 139
-18.018 18.486 2.753 185 157 110
-18.042 18.485 2.682 192 164 125
-18.027 18.485 2.686 190 162 122
-18.043 18.486 2.772 183 155 108
-17.990 18.485 2.691 189 161 121
-18.078 18.484 2.489 187 168 138
-17.998 18.484 2.498 187 164 133
-18.169 18.485 2.596 196 172 138
-18.213 18.485 2.689 191 163 126
-18.036 18.485 2.630 187 163 127
-18.121 18.485 2.711 189 159 121
-18.183 18.484 2.543 199 173 140
-18.104 18.485 2.747 186 157 117
-18.169 18.484 2.563 197 173 139
-18.010 18.485 2.536 186 163 132
-18.088 18.484 2.527 187 166 135
-18.296 18.484 2.530 198 175 134
-18.017 18.485 2.561 187 162 131
-18.124 18.486 2.773 184 155 111
-18.067 18.485 2.618 190 166 132
-18.071 18.486 2.764 184 155 111
-18.113 18.484 2.543 191 168 137
-18.058 18.485 2.698 190 160 124
-18.196 18.484 2.558 199 173 140
-18.080 18.485 2.653 193 165 128
-18.061 18.486 2.812 179 151 103
-17.998 18.485 2.573 186 162 128
-18.149 18.485 2.766 183 156 111
-18.151 18.485 2.733 186 158 118
-18.254 18.484 2.495 198 174 138
-18.050 18.485 2.713 190 161 121
-17.993 18.485 2.682 189 161 121
-18.070 18.485 2.649 191 165 132
-18.047 18.485 2.586 189 164 133
-18.230 18.485 2.665 191 165 130
-17.978 18.485 2.601 187 163 129
-18.281 18.484 2.519 200 177 136
-18.192 18.484 2.550 197 173 139
-18.087 18.485 2.662 194 165 133
-18.175 18.484 2.541 197 171 138
-18.198 18.484 2.554 198 172 139
-18.143 18.484 2.509 191 171 138
-18.225 18.485 2.679 192 164 127
-18.278 18.485 2.656 193 165 128
-18.123 18.484 2.536 193 170 139
-18.195 18.485 2.691 190 162 125
-18.021 18.484 2.518 185 164 135
-18.034 18.486 2.791 181 153 106
-18.224 18.485 2.663 192 166 131
-18.346 18.484 2.564 196 173 131
-18.289 18.484 2.536 197 173 135
-18.252 18.484 2.598 197 171 136
-18.085 18.485 2.732 186 157 117
-18.307 18.484 2.507 201 176 136
-18.104 18.485 2.596 191 168 136
-18.061 18.485 2.621 189 165 131
-18.144 18.485 2.757 184 157 114
-18.049 18.485 2.686 193 163 125
-18.136 18.485 2.623 196 170 135
-18.238 18.484 2.546 200 174 137
-18.133 18.484 2.543 194 171 139
-17.982 18.485 2.655 187 162 121
-18.043 18.484 2.504 186 162 134
-18.315 18.484 2.617 196 168 131
-17.946 18.484 2.499 186 163 129
-18.214 18.484 2.534 202 173 139
-18.149 18.484 2.509 191 171 138
-18.145 18.485 2.743 186 158 118
-18.248 18.484 2.529 201 173 136
-18.089 18.486 2.790 184 153 107
-18.300 18.484 2.589 196 170 133
-18.037 18.484 2.519 189 163 136
-18.205 18.485 2.701 190 160 122
-18.068 18.484 2.533 185 164 133
-17.994 18.485 2.629 189 161 124
-17.987 18.484 2.517 187 164 133
-18.145 18.485 2.648 195 167 130
-18.325 18.484 2.590 195 169 132
-18.067 18.485 2.685 192 162 126
-18.395 18.484 2.532 197 172 131
-18.057 18.485 2.591 189 166 134
-18.079 18.486 2.790 184 153 107
-18.181 18.484 2.549 197 173 139
-18.186 18.485 2.604 195 170 139
-17.964 18.485 2.531 187 163 129
-17.983 18.485 2.687 189 161 121
-18.012 18.485 2.715 191 159 120
-18.116 18.485 2.663 194 166 129
-18.103 18.485 2.665 194 165 133
-18.018 18.486 2.755 186 158 111
-18.343 18.484 2.540 198 173 132
-18.189 18.485 2.705 189 159 123
-18.034 18.485 2.638 188 162 127
-18.291 18.484 2.602 196 170 133
-18.306 18.484 2.556 200 172 133
-18.004 18.485 2.569 185 160 129
-18.100 18.485 2.725 188 159 119
-18.121 18.486 2.775 184 155 111
-18.124 18.485 2.697 191 161 125
-18.041 18.485 2.641 190 164 127
-18.214 18.484 2.525 202 173 139
-18.431 18.484 2.509 201 172 132
-18.080 18.486 2.774 184 156 109
-18.353 18.484 2.511 200 172 133
-18.264 18.484 2.524 202 174 137
-18.204 18.484 2.561 200 174 139
-18.137 18.484 2.538 194 171 139
-18.090 18.485 2.631 195 167 130
-18.086 18.485 2.637 194 166 129
-18.091 18.485 2.682 193 163 129
-18.366 18.484 2.580 195 172 130
-17.967 18.485 2.632 189 161 122
-18.186 18.484 2.546 199 173 140
-18.135 18.485 2.618 195 169 134
-18.391 18.484 2.505 199 174 133
-18.092 18.485 2.676 193 162 131
-18.161 18.484 2.526 194 171 139
-18.092 18.485 2.677 193 162 131
-18.369 18.484 2.580 195 172 131
-18.145 18.485 2.608 194 170 136
-18.351 18.484 2.574 195 172 130
-18.007 18.485 2.597 186 162 128
-18.085 18.486 2.777 184 156 109
-18.037 18.485 2.658 192 164 125
-18.253 18.485 2.665 192 163 129
-18.186 18.485 2.628 194 168 133
-18.097 18.485 2.626 193 167 132
-18.360 18.484 2.581 195 172 130
-18.261 18.485 2.660 194 165 131
-18.194 18.484 2.525 199 173 140
-18.036 18.486 2.860 178 146 95
-18.080 18.484 2.497 187 168 138
-17.975 18.485 2.577 186 162 128
-18.004 18.485 2.572 186 161 130
-18.091 18.486 2.816 182 151 104
-17.972 18.485 2.632 189 161 122
-18.139 18.485 2.677 192 162 124
-18.064 18.485 2.568 188 165 134
-18.349 18.484 2.529 198 173 132
-18.298 18.484 2.593 196 170 133
-17.950 18.485 2.548 188 162 127
-18.239 18.484 2.553 200 174 139
-18.208 18.485 2.674 192 164 127
-18.072 18.485 2.689 192 162 126
-18.375 18.484 2.564 195 172 131
-18.278 18.484 2.581 197 171 134
-18.361 18.484 2.526 198 173 132
-17.973 18.485 2.584 186 162 128
-18.447 18.484 2.504 197 172 131
-18.111 18.485 2.683 192 163 123
-18.401 18.484 2.524 199 171 131
-18.155 18.485 2.667 194 164 128
-18.042 18.486 2.747 185 158 113
-18.213 18.484 2.537 202 173 139
-18.089 18.486 2.790 184 153 107
-18.045 18.486 2.796 180 152 105
-18.211 18.485 2.686 192 164 127
-17.949 18.485 2.525 187 163 129
-18.029 18.485 2.542 187 164 133
-18.106 18.485 2.605 193 169 133
-18.181 18.485 2.647 192 166 129
-18.220 18.485 2.668 194 165 131
-18.060 18.485 2.748 186 157 113
-18.026 18.485 2.703 190 161 121
-18.079 18.486 2.784 183 155 108
-18.325 18.484 2.606 196 167 133
-18.230 18.484 2.507 197 173 139
-18.392 18.484 2.528 198 173 132
-18.430 18.484 2.502 200 172 132
-18.026 18.486 2.845 181 147 101
-18.193 18.485 2.694 190 160 124
-17.995 18.485 2.568 186 162 128
-18.139 18.485 2.571 193 170 139
-18.366 18.484 2.557 195 172 131
-18.265 18.485 2.657 194 165 131
-18.155 18.484 2.516 191 171 138
-18.233 18.485 2.680 192 164 127
-18.041 18.484 2.517 187 163 135
-18.046 18.485 2.707 192 160 122
-18.349 18.484 2.517 200 172 133
-17.953 18.485 2.570 187 163 127
-18.085 18.485 2.624 193 167 132
-18.008 18.486 2.769 184 156 109
-18.293 18.484 2.533 196 173 132
-18.154 18.484 2.514 191 171 138
-18.255 18.484 2.556 198 174 138
-18.115 18.485 2.715 190 160 122
-18.016 18.484 2.510 185 164 135
-18.153 18.485 2.685 192 162 124
-17.967 18.484 2.505 187 164 132
-18.217 18.485 2.664 192 166 131
-17.931 18.484 2.492 186 163 129
-18.130 18.485 2.669 195 165 127
-18.243 18.484 2.538 202 174 137
-18.219 18.485 2.606 195 171 135
-18.308 18.484 2.619 196 168 131
-18.092 18.485 2.570 191 168 137
-18.248 18.484 2.563 199 175 139
-18.027 18.484 2.489 185 164 133
-18.105 18.485 2.588 191 168 136
-18.231 18.485 2.610 196 170 135
-18.129 18.484 2.507 190 170 137
-18.080 18.485 2.670 194 165 133
-18.028 18.486 2.848 181 147 101
-18.368 18.484 2.587 195 172 131
-18.263 18.484 2.542 200 175 135
-18.103 18.485 2.668 193 164 130
-18.236 18.484 2.583 196 174 137
-18.283 18.484 2.588 197 171 134
-18.197 18.485 2.713 189 159 121
-18.006 18.485 2.540 187 162 132
-17.985 18.485 2.588 186 162 126
-18.070 18.484 2.494 188 167 138
-18.063 18.485 2.598 189 166 132
-18.306 18.484 2.544 198 172 135
-17.977 18.485 2.617 188 160 123
-18.027 18.485 2.650 189 165 127
-17.998 18.484 2.488 187 164 133
-18.328 18.484 2.605 197 168 134
-18.435 18.484 2.523 199 171 131
-18.047 18.485 2.635 189 163 128
-18.039 18.486 2.751 186 158 111
-18.046 18.485 2.669 192 164 125
-18.182 18.485 2.731 188 158 120
-18.350 18.484 2.500 199 176 135
-18.016 18.485 2.598 186 162 128
-18.178 18.485 2.666 192 166 129
-18.385 18.484 2.544 196 171 130
-18.109 18.485 2.585 191 168 136
-18.291 18.484 2.576 196 170 133
-18.028 18.486 2.782 183 155 107
-18.368 18.484 2.554 196 173 131
-18.015 18.486 2.787 182 154 106
-18.223 18.485 2.619 195 169 134
-18.105 18.485 2.590 191 168 136
-18.076 18.485 2.561 189 166 135
-18.205 18.485 2.618 193 169 133
-18.355 18.484 2.564 196 173 131
-18.111 18.485 2.685 193 164 124
-17.979 18.485 2.521 187 162 131
-17.971 18.485 2.645 189 159 121
-18.242 18.484 2.527 202 174 137
-18.376 18.484 2.526 198 173 132
-17.971 18.485 2.536 189 163 130
-18.130 18.484 2.539 194 171 139
-17.954 18.484 2.488 186 163 131
-18.236 18.484 2.567 198 172 137
-18.205 18.485 2.668 193 165 128
-18.263 18.484 2.497 199 173 138
-17.991 18.485 2.630 189 161 122
-18.002 18.484 2.485 187 163 135
-18.319 18.484 2.529 202 177 137
-18.157 18.484 2.506 191 171 136
-18.038 18.485 2.725 187 158 116
-18.079 18.484 2.547 188 165 134
-18.156 18.484 2.568 196 171 140
-18.086 18.485 2.703 189 160 120
-18.198 18.484 2.579 199 173 140
-18.140 18.484 2.515 191 171 138
-18.002 18.485 2.718 191 159 120
-18.383 18.484 2.554 196 171 130
-17.964 18.485 2.561 187 163 129
-18.006 18.485 2.696 190 161 121
-18.011 18.485 2.706 192 160 121
-18.122 18.485 2.601 193 170 138
-18.046 18.485 2.684 193 163 125
-17.980 18.485 2.571 186 162 128
-17.998 18.485 2.528 186 163 132
-18.088 18.485 2.655 194 165 133
-18.344 18.484 2.578 195 170 130
-18.228 18.485 2.640 192 166 131
-18.036 18.485 2.700 191 161 123
-18.292 18.484 2.565 198 172 135
-18.097 18.485 2.686 193 163 125
-18.000 18.485 2.543 187 162 131
-18.184 18.484 2.560 198 172 139
-18.395 18.484 2.502 199 174 133
-18.412 18.484 2.512 199 171 131
-18.319 18.484 2.516 199 176 135
-18.191 18.485 2.676 191 163 126
-18.191 18.484 2.569 199 173 140
-18.075 18.485 2.592 190 167 135
-18.450 18.484 2.506 197 172 132
-18.027 18.486 2.779 183 155 107
-18.059 18.485 2.625 189 165 131
-18.169 18.484 2.498 192 172 137
-17.994 18.484 2.514 187 164 133
-18.157 18.484 2.545 197 172 141
-17.965 18.485 2.569 186 162 128
-18.286 18.484 2.504 200 174 137
-18.148 18.484 2.560 195 170 139
-18.253 18.485 2.676 192 164 127
-18.128 18.485 2.721 189 159 121
-18.143 18.484 2.506 190 170 137
-18.058 18.484 2.522 186 162 134
-18.200 18.485 2.718 189 159 121
-18.140 18.485 2.735 187 158 118
-18.272 18.484 2.494 199 173 138
-18.138 18.485 2.746 187 158 118
-18.055 18.486 2.760 184 155 111
-18.014 18.485 2.565 186 161 130
-18.096 18.484 2.550 191 168 137
-18.265 18.485 2.670 193 165 128
-18.286 18.484 2.597 196 170 133
-18.332 18.484 2.601 195 169 132
-18.145 18.485 2.695 191 161 123
-18.012 18.485 2.683 189 161 121
-18.208 18.485 2.628 194 168 133
-18.264 18.485 2.645 193 167 132
-18.212 18.484 2.569 199 173 138
-17.939 18.485 2.527 186 162 126
-18.034 18.484 2.506 186 162 134
-18.178 18.485 2.640 193 167 130
-18.028 18.485 2.679 190 162 122
-18.357 18.484 2.558 196 175 132
-18.063 18.485 2.668 192 164 127
-18.060 18.485 2.669 192 164 127
-18.022 18.485 2.596 187 163 129
-18.096 18.485 2.569 192 169 138
-18.174 18.484 2.508 194 171 137
-18.002 18.485 2.570 186 161 130
-18.321 18.484 2.532 200 175 135
-18.227 18.484 2.500 198 174 140
-17.974 18.485 2.646 189 159 121
-18.227 18.484 2.574 197 173 137
-18.119 18.485 2.678 193 164 124
-18.020 18.485 2.691 189 161 121
-18.168 18.484 2.561 197 173 139
-18.138 18.485 2.647 195 167 130
-18.074 18.485 2.591 190 167 135
-18.002 18.485 2.542 187 162 131
-18.095 18.486 2.785 184 153 107
-18.323 18.484 2.536 200 175 135
-18.036 18.486 2.859 178 146 95
-18.285 18.485 2.629 193 167 130
-18.327 18.484 2.508 199 176 135
-17.997 18.484 2.522 186 163 132
-18.221 18.484 2.514 197 173 137
-18.140 18.485 2.774 184 157 112
-18.068 18.484 2.500 187 166 137
-18.188 18.485 2.626 194 168 133
-18.191 18.485 2.621 194 170 136
-18.166 18.485 2.671 193 163 127
-18.244 18.484 2.574 197 175 138
-18.006 18.485 2.582 185 161 127
-18.076 18.484 2.525 186 165 136
-18.172 18.485 2.686 192 162 126
-18.039 18.486 2.844 178 147 101
-18.083 18.485 2.662 194 165 133
-18.075 18.486 2.795 180 151 107
-18.068 18.484 2.531 186 165 134
-18.008 18.485 2.602 185 161 127
-18.022 18.486 2.810 182 151 105
-18.346 18.484 2.571 196 173 131
-18.097 18.485 2.743 186 157 117
-18.195 18.485 2.697 190 160 124
-18.204 18.485 2.659 190 164 129
-18.110 18.485 2.736 186 156 118
-18.206 18.484 2.555 199 173 138
-18.406 18.484 2.521 199 171 131
-18.016 18.486 2.784 183 155 107
-18.075 18.485 2.556 186 165 134
-17.977 18.485 2.524 187 162 131
-17.949 18.485 2.542 188 162 127
-17.986 18.485 2.688 189 161 121
-18.417 18.484 2.503 198 173 133
-18.401 18.484 2.526 199 171 131
-18.023 18.485 2.545 186 163 132
-18.010 18.485 2.632 188 162 125
-18.361 18.484 2.557 196 175 132
-18.116 18.485 2.727 188 158 120
-18.200 18.484 2.579 199 173 140
-18.329 18.484 2.598 195 169 132
-18.325 18.484 2.588 196 170 133
-18.106 18.484 2.503 187 166 137
-18.033 18.485 2.651 189 163 126
-17.999 18.485 2.699 189 160 120
-17.989 18.485 2.531 187 162 131
-18.024 18.485 2.581 188 163 132
-18.059 18.486 2.752 186 157 113
-18.351 18.484 2.538 199 174 133
-18.156 18.485 2.758 185 158 115
-18.077 18.484 2.528 186 165 134
-18.205 18.485 2.685 191 163 126
-18.154 18.485 2.606 195 171 137
-17.989 18.485 2.537 187 162 131
-18.050 18.485 2.691 192 162 124
-18.054 18.484 2.536 186 163 132
-18.120 18.485 2.577 193 170 139
-18.355 18.484 2.575 195 172 130
-18.029 18.485 2.690 190 162 122
-18.269 18.484 2.528 202 174 135
-18.078 18.484 2.544 187 164 133
-18.222 18.485 2.703 191 162 122
-18.310 18.485 2.634 196 168 131
-18.335 18.484 2.596 194 168 131
-18.208 18.485 2.668 193 165 128
-18.439 18.484 2.514 198 170 130
-18.125 18.485 2.750 183 155 116
-18.024 18.484 2.505 186 165 134
-18.092 18.484 2.494 187 168 138
-18.323 18.484 2.526 201 176 136
-18.157 18.484 2.565 196 171 140
-17.951 18.485 2.563 187 163 127
-18.352 18.484 2.539 199 174 133
-18.115 18.484 2.524 189 168 139
-17.963 18.485 2.615 188 160 123
-18.170 18.484 2.503 191 171 136
-18.183 18.485 2.729 188 158 120
-18.351 18.484 2.507 198 175 134
-18.049 18.486 2.794 182 154 107
-18.183 18.485 2.628 194 168 133
-18.029 18.484 2.530 185 164 135
-18.104 18.485 2.668 193 164 130
-18.031 18.485 2.574 187 162 131
-18.001 18.484 2.492 187 164 133
-18.114 18.485 2.564 192 169 138
-18.416 18.484 2.532 198 170 130
-18.417 18.484 2.536 198 170 130
-17.979 18.485 2.640 189 159 121
-18.162 18.485 2.707 189 161 122
-17.992 18.485 2.595 186 162 126
-18.240 18.485 2.650 193 167 132
-18.182 18.484 2.526 198 172 139
-18.003 18.485 2.714 191 159 120
-18.166 18.485 2.609 195 170 139
-18.205 18.484 2.503 195 172 138
-18.173 18.485 2.733 187 159 119
-18.111 18.485 2.654 194 165 133
-18.056 18.484 2.506 186 165 136
-18.107 18.485 2.620 193 169 133
-18.343 18.484 2.558 198 173 132
-18.034 18.486 2.820 180 149 102
-18.313 18.484 2.588 199 171 132
-18.196 18.485 2.657 192 166 129
-18.175 18.484 2.491 191 171 138
-18.114 18.486 2.777 183 154 110
-18.149 18.484 2.568 195 170 139
-18.310 18.484 2.578 199 171 132
-18.042 18.485 2.542 187 164 133
-18.218 18.484 2.578 198 172 137
-18.141 18.485 2.588 193 170 138
-18.013 18.485 2.543 186 163 132
-18.339 18.484 2.558 197 172 131
-18.112 18.486 2.788 184 153 107
-18.097 18.485 2.588 191 168 136
-18.000 18.485 2.651 188 163 123
-18.111 18.485 2.638 196 168 131
-18.232 18.484 2.562 199 173 138
-18.309 18.485 2.633 195 167 130
-18.288 18.485 2.633 193 167 130
-18.196 18.484 2.506 195 172 138
-18.066 18.485 2.594 190 167 135
-17.972 18.484 2.509 188 163 132
-18.235 18.484 2.506 198 174 140
-18.226 18.484 2.512 197 174 142
-18.199 18.484 2.501 195 172 138
-18.233 18.484 2.503 198 174 140
-18.020 18.486 2.803 181 153 106
-18.168 18.485 2.684 192 162 126
-18.275 18.484 2.516 200 175 135
-18.286 18.484 2.548 198 172 135
-18.034 18.484 2.486 188 164 136
-17.983 18.485 2.581 185 161 127
-18.003 18.484 2.504 186 163 132
-18.031 18.486 2.760 184 156 109
-18.262 18.484 2.572 195 173 136
-18.105 18.484 2.555 191 168 137
-17.993 18.485 2.536 186 161 130
-18.023 18.485 2.692 189 161 121
-18.253 18.484 2.592 197 171 136
-18.096 18.485 2.592 191 168 136
-18.112 18.486 2.770 182 153 111
-18.024 18.485 2.709 190 161 121
-18.221 18.484 2.538 202 173 139
-18.157 18.485 2.707 189 161 122
-18.071 18.486 2.782 183 154 110
-18.071 18.485 2.553 186 165 134
-18.226 18.485 2.695 191 161 123
-17.936 18.484 2.492 186 163 129
-17.957 18.485 2.595 186 162 126
-17.987 18.485 2.681 190 162 122
-18.071 18.484 2.516 186 165 136
-18.125 18.485 2.647 196 168 131
-18.089 18.485 2.586 190 167 135
-17.993 18.485 2.613 189 161 124
-18.147 18.485 2.765 183 156 113
-17.979 18.485 2.668 187 162 122
-18.354 18.484 2.569 196 173 131
-18.111 18.485 2.709 189 159 121
-18.055 18.485 2.599 188 165 131
-18.174 18.484 2.557 198 172 139
-18.254 18.484 2.587 197 173 137
-17.938 18.485 2.518 186 162 126
-18.121 18.484 2.546 193 170 139
-17.995 18.485 2.590 186 162 126
-18.012 18.486 2.739 187 158 116
-18.019 18.485 2.703 190 161 121
-18.250 18.484 2.499 198 174 138
-17.958 18.485 2.585 186 162 126
-18.225 18.484 2.493 196 173 139
-18.169 18.485 2.603 195 171 137
-18.047 18.485 2.733 186 157 115
-18.410 18.484 2.513 199 171 131
-18.012 18.485 2.560 187 162 131
-18.048 18.485 2.704 192 160 122
-17.973 18.485 2.515 187 162 131
-18.098 18.485 2.589 191 168 136
-18.199 18.484 2.586 198 172 139
-18.007 18.485 2.720 190 158 119
-18.170 18.484 2.496 192 172 137
-17.977 18.484 2.515 188 163 132
-18.082 18.486 2.808 182 151 104
-18.092 18.485 2.761 184 155 111
-18.013 18.486 2.777 183 155 108
-17.984 18.485 2.696 189 160 120
-18.221 18.484 2.516 197 173 137
-17.990 18.485 2.527 187 162 131
-17.998 18.485 2.553 187 162 131
-18.101 18.486 2.767 184 155 111
-18.181 18.484 2.499 194 171 137
-18.072 18.486 2.809 179 151 104
-18.167 18.484 2.520 194 171 139
-18.142 18.484 2.562 194 171 139
-18.254 18.485 2.670 192 164 127
-18.206 18.484 2.516 197 173 137
-18.267 18.485 2.629 195 169 134
-18.381 18.484 2.549 196 171 130
-18.249 18.484 2.550 199 175 137
-17.966 18.485 2.560 187 163 129
-18.169 18.484 2.497 192 172 137
-18.061 18.485 2.604 190 166 132
-18.195 18.484 2.534 201 172 140
-18.275 18.484 2.555 198 174 136
-18.075 18.486 2.792 181 152 108
-18.301 18.484 2.531 198 175 134
-17.985 18.485 2.643 189 161 122
-17.981 18.484 2.514 188 163 132
-17.956 18.485 2.555 189 163 128
-18.122 18.484 2.556 192 169 138
-18.271 18.484 2.544 199 175 137
-18.063 18.485 2.557 187 164 133
-18.199 18.484 2.512 196 173 139
-18.152 18.485 2.643 196 167 133
-18.385 18.484 2.538 197 172 131
-18.167 18.485 2.650 194 165 131
-18.246 18.484 2.512 199 175 141
-18.215 18.484 2.540 202 173 139
-18.246 18.484 2.504 198 174 138
-18.147 18.485 2.674 194 164 126
-18.105 18.485 2.560 191 168 137
-18.061 18.485 2.607 190 166 132
-18.211 18.484 2.518 198 172 137
-18.251 18.484 2.511 199 173 140
-18.341 18.484 2.603 195 169 132
-18.097 18.485 2.735 186 157 117
-18.089 18.485 2.654 194 165 131
-18.101 18.485 2.681 193 163 127
-18.205 18.485 2.600 196 170 135
-18.050 18.485 2.727 187 158 116
-18.102 18.485 2.727 187 158 118
-17.981 18.484 2.512 188 163 132
-18.197 18.484 2.534 201 172 140
-18.251 18.484 2.502 199 173 138
-17.999 18.484 2.520 186 163 132
-18.159 18.485 2.622 196 170 137
-18.231 18.484 2.561 202 173 139
-18.038 18.485 2.562 188 163 133
-18.150 18.485 2.666 194 164 126
-18.290 18.484 2.594 196 170 133
-18.323 18.484 2.558 199 171 132
-18.066 18.486 2.758 184 155 111
-18.001 18.485 2.571 186 161 130
-18.020 18.485 2.634 189 163 126
-18.197 18.484 2.532 201 172 140
-18.001 18.485 2.627 187 161 124
-17.958 18.485 2.570 186 162 126
-18.270 18.484 2.509 199 174 134
-18.196 18.485 2.665 190 164 127
-18.083 18.484 2.546 189 166 135
-18.384 18.484 2.511 199 174 133
-18.104 18.485 2.648 195 167 130
-18.090 18.486 2.795 184 153 107
-18.159 18.484 2.541 196 171 140
-18.251 18.485 2.662 193 164 130
-18.257 18.484 2.575 196 174 137
-17.961 18.485 2.547 187 161 126
-18.391 18.484 2.532 197 172 131
-18.003 18.485 2.697 189 160 120
-18.288 18.485 2.621 194 168 131
-18.255 18.484 2.602 197 171 136
-17.966 18.485 2.526 187 163 129
-18.040 18.485 2.715 189 160 120
-18.012 18.484 2.508 185 164 133
-18.347 18.484 2.526 198 173 133
-18.092 18.485 2.680 193 163 129
-18.189 18.485 2.625 194 168 135
-18.073 18.485 2.550 186 165 134
-18.168 18.484 2.555 197 172 141
-18.094 18.484 2.548 190 167 136
-18.162 18.485 2.751 185 158 115
-18.118 18.485 2.756 184 156 117
-18.027 18.486 2.778 183 155 107
-18.286 18.484 2.548 198 172 135
-18.257 18.485 2.663 193 164 130
-18.361 18.484 2.552 196 174 127
-18.125 18.485 2.722 188 158 120
-18.240 18.485 2.643 193 167 132
-18.266 18.484 2.523 202 174 137
-18.377 18.484 2.500 202 174 135
-18.255 18.485 2.643 193 167 132
-18.172 18.485 2.617 197 171 138
-18.170 18.485 2.615 196 170 137
-18.051 18.485 2.611 190 165 134
-18.027 18.485 2.594 186 161 130
-18.124 18.485 2.673 194 166 126
-18.147 18.485 2.571 195 170 139
-18.038 18.484 2.490 188 164 136
-18.191 18.485 2.625 194 168 133
-18.052 18.486 2.793 182 153 109
-18.300 18.484 2.570 197 172 132
-18.299 18.484 2.550 198 172 135
-18.063 18.485 2.653 194 166 129
-18.183 18.484 2.503 194 171 137
-17.942 18.485 2.530 186 162 126
-18.349 18.484 2.543 198 174 130
-18.313 18.484 2.605 195 169 132
-18.215 18.485 2.684 192 164 127
-18.358 18.484 2.551 197 175 128
-18.224 18.484 2.517 198 174 140
-18.085 18.485 2.677 193 162 131
-18.205 18.485 2.672 193 165 128
-18.010 18.485 2.728 190 158 117
-18.350 18.484 2.518 200 172 133
-18.142 18.485 2.573 194 171 139
-18.193 18.484 2.524 199 173 140
-17.965 18.484 2.494 187 164 132
-18.063 18.485 2.628 190 166 132
-18.298 18.484 2.533 198 175 134
-18.044 18.486 2.800 181 152 108
-18.046 18.485 2.745 185 158 113
-18.221 18.485 2.652 193 167 132
-17.989 18.485 2.601 186 162 126
-18.053 18.484 2.523 186 162 134
-18.157 18.485 2.663 195 165 129
-18.264 18.484 2.606 196 170 135
-18.209 18.484 2.576 198 172 137
-18.071 18.484 2.526 186 165 136
-17.990 18.485 2.643 189 161 122
-18.245 18.485 2.675 193 165 128
-18.195 18.484 2.512 195 172 138
-18.075 18.486 2.797 180 151 107
-18.116 18.485 2.734 186 156 118
-18.132 18.485 2.688 192 162 124
-18.355 18.484 2.499 200 175 135
-18.095 18.485 2.570 191 168 137
-17.969 18.485 2.602 187 163 129
-18.406 18.484 2.535 199 171 131
-18.345 18.484 2.561 197 174 132
-18.332 18.484 2.582 196 170 133
-18.026 18.485 2.719 187 158 118
-18.334 18.484 2.606 197 169 132
-18.039 18.486 2.762 184 156 109
-17.971 18.485 2.623 188 160 123
-18.118 18.485 2.727 188 158 120
-18.368 18.484 2.541 196 173 131
-18.089 18.485 2.747 185 156 116
-18.128 18.485 2.711 189 159 121
-18.122 18.485 2.730 187 157 119
-18.066 18.485 2.670 192 164 127
-18.304 18.485 2.627 195 167 130
-17.951 18.485 2.528 187 163 127
-18.255 18.485 2.623 195 169 134
-18.350 18.484 2.506 198 175 134
-18.423 18.484 2.519 200 171 131
-18.074 18.485 2.591 190 167 135
-18.163 18.484 2.509 194 171 139
-18.134 18.484 2.535 192 172 139
-18.160 18.484 2.530 194 171 139
-18.252 18.484 2.504 199 173 138
-18.236 18.485 2.660 192 166 131
-18.273 18.484 2.600 195 171 133
-18.198 18.484 2.554 199 173 140
-18.117 18.485 2.647 196 168 131
-18.191 18.484 2.569 199 173 140
-18.024 18.486 2.823 180 150 100
-17.998 18.485 2.579 186 162 128
-18.108 18.484 2.516 188 167 138
-18.017 18.485 2.647 190 164 127
-18.023 18.486 2.740 186 157 115
-18.160 18.484 2.491 190 170 135
-18.150 18.484 2.494 191 171 138
-18.220 18.485 2.698 191 161 123
-18.300 18.484 2.506 200 175 135
-18.184 18.484 2.564 198 172 139
-18.218 18.485 2.595 197 171 136
-18.039 18.486 2.779 184 156 109
-18.394 18.484 2.554 196 171 130
-18.051 18.485 2.696 190 160 122
-18.079 18.485 2.585 191 168 136
-18.228 18.485 2.651 192 166 131
-18.226 18.485 2.607 196 170 135
-18.308 18.484 2.599 199 171 132
-17.952 18.485 2.522 187 163 129
-18.006 18.485 2.729 190 158 117
-18.085 18.485 2.749 184 157 112
-18.318 18.485 2.626 195 167 130
-18.248 18.484 2.503 198 174 138
-18.042 18.484 2.491 188 164 136
-18.364 18.484 2.526 199 174 133
-18.171 18.485 2.666 194 164 128
-18.061 18.485 2.744 186 159 114
-18.109 18.485 2.737 186 156 118
-18.117 18.485 2.636 196 168 131
-18.106 18.485 2.712 189 160 120
-18.039 18.485 2.631 188 164 128
-18.333 18.484 2.584 195 169 132
-18.301 18.484 2.505 200 175 135
-17.986 18.485 2.566 187 163 129
-18.212 18.485 2.666 191 165 130
-18.246 18.485 2.629 195 169 134
-18.260 18.485 2.634 194 168 133
-18.285 18.484 2.527 199 176 135
-18.313 18.484 2.552 200 172 135
-18.092 18.486 2.766 184 155 111
-18.307 18.484 2.551 200 172 135
-18.212 18.485 2.685 192 164 127
-18.418 18.484 2.527 200 171 131
-18.316 18.484 2.585 199 171 132
-18.232 18.485 2.688 192 162 126
-18.409 18.484 2.507 197 174 132
-18.046 18.485 2.570 189 164 134
-18.221 18.485 2.688 191 163 124
-18.184 18.484 2.550 198 174 140
-18.118 18.485 2.610 194 170 134
-18.066 18.484 2.525 186 165 136
-18.067 18.485 2.688 191 161 125
-18.056 18.484 2.519 186 162 134
-17.996 18.485 2.658 189 164 123
-18.038 18.484 2.523 189 163 136
-18.253 18.484 2.541 200 174 137
-18.413 18.484 2.515 199 171 131
-18.247 18.484 2.593 196 172 136
-18.051 18.486 2.773 184 156 109
-18.279 18.484 2.533 200 177 136
-18.179 18.484 2.497 194 171 137
-18.020 18.485 2.600 187 163 129
-17.999 18.486 2.741 188 156 115
-18.158 18.485 2.705 190 162 123
-18.306 18.484 2.516 198 176 135
-18.018 18.485 2.602 187 163 129
-18.015 18.485 2.610 188 162 127
-18.020 18.485 2.611 188 162 127
-18.157 18.484 2.516 193 170 138
-18.015 18.485 2.734 187 158 116
-18.190 18.485 2.635 194 168 133
-18.099 18.485 2.642 195 167 130
-18.065 18.484 2.542 184 163 132
-18.195 18.484 2.548 199 173 140
-18.041 18.485 2.619 188 163 132
-18.104 18.485 2.696 192 163 123
-17.977 18.485 2.546 187 161 128
-18.295 18.484 2.534 197 174 133
-18.231 18.484 2.546 202 173 139
-18.218 18.484 2.559 199 173 138
-18.113 18.484 2.493 188 167 138
-18.035 18.486 2.835 179 148 101
-18.019 18.486 2.760 185 157 110
-18.166 18.485 2.599 195 170 139
-18.173 18.484 2.515 194 171 139
-18.037 18.485 2.652 190 164 127
-18.047 18.486 2.806 180 152 105
-18.167 18.485 2.600 195 170 139
-18.122 18.484 2.515 189 168 139
-18.027 18.485 2.738 186 157 115
-18.207 18.484 2.576 198 172 137
-18.317 18.484 2.557 199 171 132
-18.110 18.484 2.492 188 167 138
-18.200 18.484 2.508 195 172 138
-18.178 18.484 2.520 197 173 139
-18.360 18.484 2.567 195 174 131
-18.431 18.484 2.519 200 171 131
-18.115 18.486 2.777 183 154 110
-17.965 18.484 2.486 188 165 133
-18.143 18.484 2.544 195 172 140
-18.266 18.485 2.665 193 164 130
-18.030 18.486 2.767 184 156 109
-18.273 18.484 2.562 198 174 136
-17.998 18.485 2.720 191 159 120
-18.007 18.484 2.513 187 163 135
-17.974 18.485 2.523 187 162 131
-18.024 18.486 2.757 185 157 110
-18.071 18.485 2.652 192 164 127
-18.043 18.486 2.784 182 154 107
-18.386 18.484 2.506 199 174 133
-18.049 18.485 2.575 188 165 133
-18.108 18.484 2.519 187 166 137
-18.020 18.485 2.678 190 162 122
-18.070 18.485 2.628 191 167 133
-18.002 18.485 2.631 188 162 125
-18.037 18.486 2.765 184 156 109
-18.286 18.485 2.629 193 167 130
-18.054 18.485 2.649 191 165 130
-18.083 18.485 2.567 189 166 135
-18.035 18.485 2.612 188 163 132
-18.249 18.485 2.621 195 169 134
-18.313 18.484 2.609 197 169 132
-18.156 18.485 2.581 196 171 140
-18.294 18.484 2.502 199 173 136
-17.980 18.484 2.490 187 164 133
-18.199 18.484 2.510 196 173 139
-18.182 18.485 2.635 194 168 133
-17.999 18.485 2.570 186 162 128
-18.069 18.486 2.758 184 155 111
-18.089 18.484 2.502 186 167 137
-18.118 18.484 2.496 188 167 138
-18.148 18.485 2.626 196 170 135
-18.111 18.485 2.722 187 157 119
-18.036 18.484 2.494 188 164 136
-18.126 18.484 2.556 194 171 139
-18.258 18.485 2.665 193 164 130
-18.162 18.484 2.494 190 170 135
-18.299 18.484 2.530 198 175 134
-18.227 18.485 2.612 196 170 135
-18.185 18.484 2.522 197 173 139
-18.178 18.485 2.718 188 158 122
-18.107 18.485 2.597 191 168 136
-18.181 18.485 2.642 193 167 130
-18.036 18.485 2.595 187 162 131
-18.250 18.485 2.641 194 168 133
-18.336 18.484 2.547 197 172 131
-18.360 18.484 2.508 201 173 136
-18.157 18.485 2.620 196 170 137
-18.076 18.484 2.543 185 164 133
-18.066 18.484 2.534 185 164 133
-17.973 18.485 2.569 186 162 128
-18.201 18.484 2.540 201 172 138
-18.013 18.485 2.676 190 162 122
-18.121 18.485 2.709 189 159 121
-18.017 18.485 2.632 189 163 126
-18.126 18.485 2.686 193 164 124
-18.195 18.485 2.727 190 160 122
-18.013 18.485 2.565 186 161 130
-18.180 18.485 2.599 197 171 138
-18.127 18.485 2.596 194 171 140
-18.203 18.484 2.500 195 172 138
-18.379 18.484 2.530 198 173 132
-18.325 18.484 2.608 196 167 133
-18.034 18.486 2.766 184 156 109
-18.133 18.485 2.701 190 160 122
-18.160 18.485 2.725 188 160 121
-18.242 18.485 2.667 191 165 128
-18.028 18.485 2.672 190 162 122
-18.276 18.485 2.634 193 167 130
-18.069 18.485 2.699 191 161 125
-18.137 18.485 2.688 191 161 123
-18.019 18.485 2.697 190 161 121
-18.022 18.485 2.664 189 164 123
-18.016 18.485 2.692 189 161 121
-18.082 18.485 2.593 190 167 135
-17.973 18.485 2.521 187 162 131
-18.231 18.485 2.699 191 161 123
-18.209 18.484 2.498 195 172 138
-18.281 18.484 2.527 199 176 135
-18.198 18.484 2.545 199 173 140
-18.008 18.485 2.542 187 162 131
-18.065 18.485 2.624 190 166 132
-18.274 18.484 2.570 197 173 135
-18.242 18.485 2.684 191 163 126
-18.143 18.485 2.748 187 158 118
-18.020 18.485 2.599 187 163 129
-18.079 18.485 2.745 186 157 117
-18.072 18.486 2.826 181 150 103
-18.013 18.485 2.583 186 161 130
-18.091 18.485 2.670 193 164 132
-18.186 18.484 2.534 199 173 140
-18.145 18.485 2.640 196 167 133
-17.975 18.485 2.543 188 162 129
-18.108 18.485 2.642 196 168 131
-18.099 18.485 2.679 193 163 129
-18.145 18.484 2.520 191 171 138
-18.241 18.484 2.506 198 174 138
-18.103 18.485 2.652 196 166 130
-18.173 18.484 2.510 194 171 139
-18.073 18.486 2.773 183 154 110
-18.081 18.485 2.642 193 165 128
-18.140 18.485 2.613 195 169 134
-18.438 18.484 2.518 199 171 131
-18.271 18.484 2.591 196 172 134
-18.291 18.484 2.605 196 170 133
-18.113 18.484 2.518 188 167 138
-17.969 18.485 2.581 187 163 129
-18.090 18.485 2.679 193 162 131
-18.127 18.485 2.760 184 155 113
-18.269 18.485 2.633 194 168 133
-18.173 18.485 2.730 186 158 118
-18.169 18.484 2.539 196 171 140
-18.155 18.485 2.667 194 164 128
-18.193 18.485 2.702 190 160 124
-18.193 18.485 2.608 195 171 137
-18.044 18.485 2.726 187 158 116
-18.256 18.485 2.605 196 170 135
-18.081 18.486 2.815 182 151 104
-18.010 18.486 2.762 186 158 111
-18.051 18.485 2.666 192 164 125
-18.131 18.485 2.758 184 155 113
-18.079 18.485 2.663 194 165 131
-18.203 18.485 2.603 196 170 135
-18.380 18.484 2.500 202 174 135
-18.266 18.485 2.650 192 166 131
-18.398 18.484 2.526 197 172 131
-18.202 18.485 2.596 196 170 135
-18.311 18.484 2.554 201 173 136
-18.225 18.485 2.665 191 165 130
-17.945 18.485 2.519 187 163 129
-18.050 18.485 2.710 192 160 122
-18.123 18.485 2.577 193 170 139
-17.954 18.485 2.574 186 162 126
-18.301 18.484 2.506 200 175 135
-18.105 18.485 2.655 195 166 136
-18.011 18.486 2.736 189 157 116
-18.128 18.484 2.544 194 171 139
-17.953 18.484 2.489 186 163 131
-17.965 18.484 2.498 187 164 132
-18.058 18.485 2.727 187 158 116
-17.937 18.484 2.496 186 164 127
-18.084 18.485 2.703 189 160 120
-18.178 18.484 2.554 197 173 139
-18.147 18.484 2.556 194 171 139
-18.319 18.484 2.533 200 175 135
-18.386 18.484 2.569 195 170 130
-18.170 18.484 2.574 196 172 138
-18.054 18.485 2.670 191 163 124
-18.185 18.485 2.609 195 170 139
-18.050 18.485 2.637 190 164 129
-18.296 18.484 2.556 199 173 136
-18.108 18.485 2.699 191 162 122
-18.146 18.485 2.711 189 161 122
-18.174 18.484 2.563 198 172 139
-18.028 18.485 2.541 187 164 133
-18.074 18.485 2.692 192 162 126
-18.132 18.485 2.704 190 160 122
-18.001 18.486 2.756 185 156 112
-18.168 18.485 2.739 185 157 117
-18.244 18.485 2.687 191 163 126
-18.148 18.484 2.558 195 170 139
-18.160 18.485 2.689 191 161 125
-18.161 18.485 2.674 193 163 127
-18.030 18.486 2.842 179 147 96
-17.960 18.485 2.538 189 163 128
-18.307 18.484 2.527 199 176 135
-18.469 18.484 2.501 197 174 133
-18.045 18.486 2.824 180 149 102
-17.998 18.485 2.653 189 164 123
-18.026 18.485 2.739 186 157 115
-18.033 18.485 2.698 191 161 123
-18.140 18.485 2.700 191 161 123
-18.252 18.485 2.651 192 166 131
-18.029 18.485 2.669 191 163 123
-18.192 18.484 2.575 199 173 140
-18.299 18.484 2.531 198 175 134
-17.988 18.485 2.525 187 162 132
-18.029 18.484 2.530 185 164 135
-18.119 18.485 2.656 195 167 130
-18.154 18.484 2.491 190 170 137
-18.070 18.485 2.595 190 167 135
-18.030 18.484 2.495 188 164 136
-18.290 18.484 2.507 201 175 138
-18.203 18.485 2.707 190 160 122
-18.117 18.485 2.767 182 153 111
-18.052 18.486 2.763 184 155 111
-18.151 18.485 2.606 195 171 137
-17.996 18.485 2.727 190 158 117
-17.985 18.485 2.621 188 160 123
-18.066 18.484 2.493 188 167 138
-17.994 18.484 2.521 186 163 132
-18.180 18.484 2.546 197 173 139
-18.238 18.484 2.520 200 174 139
-18.224 18.484 2.563 199 173 138
-18.341 18.484 2.583 195 170 130
-18.345 18.484 2.540 198 173 132
-18.162 18.485 2.623 196 170 137
-18.077 18.485 2.627 191 167 133
-18.251 18.484 2.581 196 174 137
-18.241 18.484 2.533 202 174 137
-18.350 18.481 2.217 198 174 140
-18.144 18.484 2.443 188 169 136
-18.272 18.482 2.278 192 169 135
-18.437 18.482 2.315 200 174 137
-18.303 18.482 2.311 191 168 134
-18.496 18.481 2.303 203 177 140
-18.437 18.481 2.279 200 174 137
-18.300 18.482 2.363 191 167 131
-18.391 18.481 2.209 201 175 138
-18.427 18.482 2.379 200 174 137
-18.362 18.483 2.399 196 172 136
-18.321 18.482 2.283 193 171 134
-18.090 18.484 2.460 188 169 139
-18.412 18.482 2.351 198 174 136
-18.207 18.483 2.439 192 169 137
-18.231 18.482 2.304 187 167 134
-18.124 18.483 2.413 187 168 136
-18.462 18.482 2.300 202 176 139
-18.447 18.480 2.175 199 175 141
-18.473 18.483 2.410 201 175 138
-18.321 18.483 2.431 195 173 136
-18.109 18.483 2.396 188 169 139
-18.488 18.482 2.325 203 177 142
-18.489 18.482 2.395 200 176 138
-18.334 18.482 2.358 192 168 132
-18.360 18.481 2.244 199 175 139
-18.505 18.481 2.262 202 177 137
-18.116 18.484 2.442 186 167 135
-18.131 18.483 2.426 189 170 137
-18.082 18.483 2.388 187 168 138
-18.457 18.481 2.285 200 176 138
-18.379 18.483 2.430 197 175 136
-18.497 18.481 2.277 201 175 138
-18.444 18.481 2.255 201 176 136
-18.460 18.482 2.312 201 175 138
-18.216 18.482 2.327 187 166 135
-18.291 18.484 2.475 200 174 139
-18.406 18.484 2.475 201 173 136
-18.366 18.482 2.364 195 171 135
-18.236 18.482 2.339 190 167 135
-18.035 18.484 2.475 185 164 135
-18.307 18.482 2.310 192 169 135
-18.056 18.484 2.482 187 166 137
-18.354 18.482 2.330 193 171 132
-18.185 18.484 2.476 191 171 138
-18.350 18.481 2.250 197 175 138
-18.339 18.484 2.471 198 175 134
-18.490 18.480 2.210 202 176 139
-18.465 18.483 2.479 196 173 132
-18.477 18.483 2.410 200 176 138
-18.383 18.483 2.398 197 175 136
-18.393 18.482 2.378 198 174 136
-18.233 18.482 2.331 188 168 135
-18.466 18.482 2.377 202 174 137
-18.127 18.484 2.442 188 169 136
-18.499 18.480 2.151 201 177 143
-18.250 18.484 2.464 195 173 136
-18.437 18.481 2.225 201 175 138
-18.376 18.483 2.395 195 173 136
-18.432 18.481 2.247 200 174 137
-18.349 18.483 2.401 194 172 135
-18.147 18.484 2.441 189 170 137
-18.460 18.481 2.242 201 175 138
-18.255 18.483 2.364 190 166 132
-18.276 18.482 2.324 191 167 133
-18.093 18.484 2.448 186 167 137
-18.412 18.482 2.356 198 174 136
-18.156 18.484 2.457 187 168 136
-18.173 18.484 2.477 191 171 138
-18.441 18.481 2.283 200 176 138
-18.354 18.482 2.291 195 173 136
-18.314 18.482 2.366 192 168 132
-18.475 18.483 2.404 201 175 138
-18.413 18.482 2.295 198 175 134
-18.479 18.480 2.157 199 175 139
-18.055 18.484 2.463 185 166 136
-18.474 18.480 2.195 201 177 141
-18.354 18.483 2.421 195 173 136
-18.019 18.484 2.440 187 166 139
-18.144 18.484 2.481 188 168 135
-18.496 18.480 2.134 202 176 141
-18.477 18.483 2.475 197 174 133
-18.240 18.483 2.437 190 170 135
-18.480 18.483 2.429 200 177 136
-18.382 18.483 2.449 199 176 135
-18.468 18.480 2.164 199 175 139
-18.440 18.481 2.261 201 176 136
-18.224 18.484 2.466 193 173 138
-18.171 18.484 2.471 191 171 138
-18.183 18.483 2.438 189 169 136
-18.312 18.484 2.474 200 174 141
-18.314 18.483 2.444 195 173 136
-18.466 18.482 2.382 204 176 139
-18.418 18.483 2.420 202 174 135
-18.071 18.484 2.450 186 167 137
-18.357 18.482 2.314 193 171 134
-18.263 18.483 2.380 191 167 133
-18.507 18.480 2.134 202 176 141
-18.195 18.483 2.353 188 167 136
-18.509 18.480 2.158 201 175 140
-18.359 18.483 2.377 194 170 134
-18.517 18.480 2.130 202 176 141
-18.528 18.480 2.162 200 176 140
-18.322 18.482 2.338 192 168 134
-18.242 18.482 2.298 187 167 134
-17.993 18.484 2.452 187 163 135
-18.524 18.480 2.134 200 176 140
-18.028 18.484 2.435 185 165 138
-18.250 18.484 2.450 195 173 136
-18.024 18.484 2.427 186 166 139
-18.388 18.482 2.310 196 172 134
-18.031 18.484 2.436 185 166 136
-18.140 18.483 2.370 187 166 135
-18.478 18.480 2.192 200 176 142
-18.305 18.481 2.245 192 169 135
-18.235 18.483 2.404 190 167 135
-18.061 18.483 2.419 186 167 137
-18.168 18.483 2.370 188 167 136
-18.296 18.482 2.326 192 168 134
-18.397 18.484 2.483 200 175 134
-18.163 18.483 2.379 188 167 136
-18.290 18.481 2.267 192 169 135
-18.234 18.482 2.324 188 168 135
-18.312 18.481 2.270 193 170 136
-18.393 18.481 2.226 199 177 138
-18.016 18.484 2.462 186 165 136
-18.477 18.481 2.222 202 176 139
-18.323 18.484 2.470 197 175 134
-18.490 18.480 2.191 201 177 141
-18.412 18.484 2.487 198 173 133
-18.417 18.483 2.475 199 174 134
-18.247 18.483 2.403 191 168 136
-18.500 18.481 2.229 201 176 136
-18.204 18.482 2.326 187 166 135
-18.166 18.482 2.339 187 168 136
-18.391 18.481 2.229 199 177 138
-18.494 18.480 2.173 200 176 140
-18.353 18.483 2.451 198 176 137
-18.210 18.483 2.432 191 168 136
-18.485 18.480 2.170 199 175 141
-18.309 18.483 2.427 194 172 135
-18.323 18.481 2.256 192 172 137
-18.503 18.480 2.211 204 176 136
-18.536 18.480 2.130 200 176 140
-18.481 18.481 2.248 201 175 138
-18.427 18.480 2.195 199 175 139
-18.439 18.482 2.328 201 175 138
-18.459 18.482 2.349 204 176 139
-18.528 18.479 2.109 200 174 139
-18.092 18.484 2.456 188 169 139
-18.419 18.482 2.367 200 174 137
-18.469 18.480 2.187 198 176 139
-18.361 18.483 2.438 197 175 136
-18.158 18.483 2.365 188 167 136
-18.442 18.483 2.423 202 174 137
-18.408 18.481 2.206 200 178 141
-18.435 18.480 2.175 199 175 141
-18.427 18.484 2.477 200 172 132
-18.258 18.484 2.476 197 173 137
-18.058 18.484 2.435 186 167 137
-18.310 18.483 2.447 195 173 136
-18.323 18.482 2.326 191 168 134
-18.113 18.483 2.419 188 169 139
-18.171 18.483 2.402 188 167 136
-18.168 18.484 2.473 191 171 138
-18.487 18.481 2.292 201 175 138
-18.168 18.484 2.481 191 171 138
-18.119 18.483 2.394 188 169 139
-18.489 18.481 2.296 202 176 139
-18.349 18.483 2.413 195 173 136
-18.294 18.482 2.322 192 168 134
-18.204 18.483 2.371 188 167 136
-18.267 18.483 2.449 196 172 134
-18.334 18.483 2.419 194 172 135
-18.381 18.482 2.360 197 173 135
-18.391 18.481 2.224 199 177 138
-18.178 18.484 2.490 191 171 138
-18.355 18.482 2.290 195 173 136
-18.434 18.482 2.370 201 175 138
-18.344 18.483 2.442 197 175 136
-18.106 18.484 2.432 188 169 139
-18.081 18.484 2.476 186 167 137
-18.400 18.483 2.396 197 175 136
-18.140 18.483 2.352 187 168 135
-18.466 18.482 2.343 202 176 141
-18.146 18.484 2.488 189 169 136
-18.373 18.482 2.330 195 171 133
-18.371 18.483 2.418 197 175 136
-18.048 18.484 2.450 186 167 137
-18.477 18.483 2.446 199 174 134
-18.165 18.483 2.392 188 167 136
-18.119 18.483 2.400 188 169 139
-18.511 18.481 2.235 204 176 139
-18.485 18.482 2.327 203 177 142
-18.405 18.482 2.304 198 174 136
-18.126 18.484 2.448 188 169 136
-18.335 18.483 2.409 194 172 135
-18.359 18.484 2.476 201 176 136
-18.237 18.483 2.357 189 166 134
-18.402 18.483 2.421 199 176 135
-18.422 18.482 2.368 200 174 137
-18.385 18.483 2.450 199 176 135
-18.518 18.481 2.226 204 176 139
-18.447 18.481 2.293 200 176 138
-18.418 18.483 2.457 201 173 136
-18.360 18.482 2.315 193 171 134
-18.225 18.483 2.440 190 170 135
-18.444 18.481 2.223 201 175 138
-18.414 18.481 2.240 200 176 138
-18.146 18.483 2.430 187 168 135
-18.272 18.482 2.329 190 166 132
-18.264 18.483 2.371 190 166 132
-18.141 18.484 2.489 189 169 136
-18.112 18.483 2.424 188 169 139
-18.185 18.483 2.420 187 167 132
-18.362 18.483 2.454 198 176 137
-18.499 18.481 2.272 202 176 139
-18.392 18.481 2.234 199 177 138
-18.184 18.484 2.443 189 169 136
-18.338 18.481 2.267 192 172 137
-18.508 18.481 2.262 202 177 137
-18.318 18.481 2.255 192 172 137
-18.513 18.481 2.247 204 176 139
-18.179 18.482 2.337 189 168 137
-18.364 18.483 2.380 195 171 135
-18.300 18.483 2.413 191 171 134
-18.457 18.480 2.187 200 176 140
-18.450 18.481 2.223 201 175 138
-18.353 18.483 2.450 197 175 136
-18.090 18.483 2.396 186 167 137
-18.459 18.482 2.351 205 177 140
-18.361 18.481 2.258 197 175 138
-18.409 18.483 2.413 200 177 136
-18.064 18.484 2.434 186 167 137
-18.092 18.484 2.483 187 168 138
-18.394 18.483 2.436 199 176 135
-18.486 18.480 2.141 201 175 140
-18.463 18.481 2.255 201 175 138
-18.292 18.484 2.477 200 174 139
-18.140 18.483 2.377 188 167 136
-18.411 18.483 2.418 200 177 136
-18.378 18.483 2.404 197 175 138
-18.435 18.482 2.315 200 174 137
-18.388 18.484 2.494 200 175 134
-18.266 18.483 2.429 192 170 133
-18.408 18.482 2.366 198 175 134
-18.196 18.482 2.323 186 165 134
-18.377 18.484 2.480 200 175 135
-18.489 18.480 2.181 199 175 141
-18.020 18.484 2.451 185 164 137
-18.063 18.484 2.422 186 167 137
-18.263 18.484 2.458 196 172 134
-18.390 18.481 2.235 199 177 138
-18.207 18.484 2.452 192 169 135
-18.270 18.481 2.270 192 169 135
-18.504 18.481 2.283 201 175 138
-18.280 18.484 2.477 199 173 136
-18.336 18.482 2.318 192 170 133
-18.340 18.482 2.346 193 169 133
-18.345 18.483 2.436 197 175 136
-18.079 18.484 2.425 187 167 140
-18.373 18.482 2.344 195 171 133
-18.135 18.483 2.367 187 166 135
-18.435 18.482 2.342 202 174 137
-18.464 18.480 2.185 198 176 139
-18.096 18.484 2.484 187 168 138
-18.393 18.482 2.307 197 173 135
-18.521 18.480 2.205 204 176 137
-18.362 18.483 2.435 197 175 136
-18.296 18.483 2.374 191 167 131
-18.317 18.483 2.456 198 174 138
-18.213 18.484 2.460 192 174 136
-18.463 18.481 2.296 202 176 139
-18.178 18.484 2.449 188 169 137
-18.503 18.481 2.268 202 176 139
-18.496 18.480 2.161 201 177 143
-18.506 18.480 2.125 201 175 140
-18.486 18.482 2.349 202 176 141
-18.410 18.481 2.274 199 176 135
-18.490 18.481 2.270 202 176 139
-18.415 18.482 2.361 201 173 136
-18.176 18.483 2.363 188 167 136
-18.423 18.482 2.299 199 175 137
-18.473 18.481 2.290 202 176 139
-18.465 18.483 2.410 201 175 138
-18.432 18.483 2.464 201 173 133
-18.464 18.482 2.366 204 176 139
-18.376 18.481 2.258 199 175 137
-17.972 18.484 2.477 187 164 133
-18.226 18.483 2.361 187 167 134
-18.514 18.480 2.172 202 176 139
-18.420 18.484 2.496 200 172 133
-18.322 18.481 2.261 192 172 137
-18.027 18.484 2.426 186 166 139
-18.098 18.484 2.482 187 168 138
-18.229 18.482 2.341 188 168 135
-18.221 18.483 2.419 191 168 137
-18.269 18.482 2.316 191 167 133
-18.275 18.483 2.437 194 172 135
-18.397 18.481 2.211 201 175 138
-18.284 18.484 2.470 199 173 138
-18.430 18.483 2.396 201 175 138
-18.466 18.481 2.274 201 175 138
-18.374 18.482 2.328 195 171 133
-18.129 18.484 2.481 188 167 136
-18.441 18.482 2.374 203 175 138
-18.378 18.484 2.493 202 174 135
-17.950 18.484 2.483 186 163 131
-18.121 18.483 2.417 188 169 137
-18.330 18.482 2.318 191 169 132
-18.411 18.483 2.446 200 175 134
-18.433 18.483 2.439 201 173 134
-18.178 18.482 2.334 188 167 136
-17.969 18.484 2.469 187 164 133
-17.967 18.484 2.480 187 164 133
-18.124 18.484 2.451 187 168 136
-18.418 18.482 2.348 201 173 136
-18.033 18.484 2.455 185 166 136
