-18.625 21.396 2.934 163 155 116
-18.801 21.396 2.864 173 162 132
-18.567 21.395 2.999 156 147 108
-18.438 21.396 3.032 152 140 98
-18.612 21.396 2.947 161 153 116
-18.782 21.397 2.827 177 167 140
-18.813 21.396 2.858 173 164 135
-18.407 21.396 3.063 146 138 91
-18.729 21.397 2.874 171 162 131
-18.258 21.396 3.107 140 129 75
-18.360 21.396 3.053 148 137 91
-18.565 21.396 2.958 160 152 115
-18.289 21.396 3.084 144 130 81
-18.290 21.397 3.049 147 135 87
-18.559 21.395 3.017 155 146 103
-18.559 21.397 2.917 164 154 118
-18.390 21.395 3.077 146 136 87
-18.945 21.397 2.756 179 172 146
-18.426 21.395 3.090 145 135 86
-18.589 21.397 2.916 165 155 119
-18.639 21.396 2.929 164 154 119
-18.516 21.394 3.074 149 138 92
-18.489 21.395 3.056 151 143 97
-18.480 21.394 3.089 147 135 87
-18.731 21.396 2.918 167 158 125
-18.543 21.394 3.082 147 139 93
-18.331 21.395 3.123 139 125 76
-18.808 21.396 2.868 173 162 132
-18.573 21.394 3.056 152 145 99
-18.326 21.396 3.090 145 131 82
-18.475 21.395 3.052 150 142 96
-18.445 21.397 2.970 157 148 107
-18.803 21.396 2.850 173 164 135
-18.513 21.396 2.998 155 146 105
-18.709 21.396 2.902 167 158 125
-18.216 21.396 3.118 136 125 69
-18.698 21.396 2.903 166 158 122
-18.287 21.396 3.088 144 131 79
-18.475 21.396 3.021 151 142 101
-18.512 21.396 3.017 154 145 104
-18.422 21.397 2.993 154 145 104
-18.337 21.395 3.099 148 135 83
-18.663 21.397 2.871 170 162 126
-18.671 21.397 2.879 169 161 125
-18.836 21.397 2.798 178 172 146
-18.897 21.397 2.796 179 172 144
-18.325 21.396 3.061 146 136 85
-18.571 21.395 3.005 157 148 109
-18.677 21.396 2.926 165 155 120
-18.619 21.396 2.964 160 152 115
-18.538 21.396 2.988 157 147 111
-18.841 21.396 2.832 174 167 138
-18.673 21.395 2.974 157 153 116
-18.707 21.396 2.914 167 158 125
-18.725 21.396 2.908 167 158 125
-18.680 21.397 2.884 170 161 128
-18.402 21.397 3.020 153 141 99
-18.677 21.397 2.862 170 161 128
-18.503 21.397 2.961 159 150 111
-18.377 21.395 3.107 144 132 80
-18.503 21.396 3.006 154 145 104
-18.251 21.396 3.101 142 129 76
-18.515 21.396 2.986 157 148 107
-18.635 21.395 2.996 156 148 109
-18.441 21.396 3.011 150 141 98
-18.489 21.394 3.119 144 131 86
-18.334 21.397 3.036 146 138 91
-18.556 21.396 2.980 158 148 112
-18.347 21.397 3.013 151 142 99
-18.488 21.395 3.063 150 139 93
-18.584 21.395 3.004 155 146 107
-18.434 21.395 3.097 146 136 85
-18.461 21.396 3.032 150 141 98
-18.576 21.395 3.010 156 147 108
-18.478 21.395 3.062 151 140 94
-18.440 21.397 2.993 154 147 105
-18.442 21.397 2.981 157 148 107
-18.701 21.397 2.853 170 164 132
-18.479 21.397 2.968 158 149 110
-18.890 21.397 2.765 179 172 146
-18.385 21.397 3.018 153 141 99
-18.510 21.394 3.107 144 133 87
-18.367 21.397 3.023 150 141 98
-18.384 21.395 3.092 146 134 82
-18.523 21.397 2.930 162 153 114
-18.488 21.394 3.117 144 131 86
-18.859 21.397 2.793 180 172 149
-18.467 21.394 3.103 147 135 85
-18.554 21.396 2.973 159 149 113
-18.313 21.396 3.081 146 133 81
-18.539 21.396 3.001 156 147 108
-18.481 21.394 3.113 144 132 84
-18.309 21.396 3.086 145 131 82
-18.788 21.397 2.845 175 163 137
-18.384 21.395 3.109 144 132 82
-18.254 21.397 3.062 145 133 83
-18.303 21.396 3.085 144 130 81
-18.827 21.397 2.798 178 173 144
-18.649 21.396 2.940 162 154 117
-18.835 21.396 2.829 176 169 140
-18.671 21.395 2.951 161 153 117
-18.604 21.394 3.036 153 146 104
-18.289 21.397 3.076 145 133 83
-18.840 21.397 2.807 178 172 146
-18.744 21.397 2.852 173 164 133
-18.176 21.397 3.088 146 131 76
-18.200 21.396 3.116 136 125 71
-18.267 21.397 3.047 146 135 89
-18.442 21.396 3.051 152 139 95
-18.457 21.395 3.052 150 139 94
-18.421 21.396 3.041 151 140 94
-18.849 21.396 2.835 176 169 140
-18.534 21.397 2.925 163 153 117
-18.674 21.395 2.948 162 152 117
-18.662 21.395 2.984 156 150 114
-18.235 21.397 3.062 144 132 80
-18.481 21.396 3.029 152 143 102
-18.506 21.396 3.010 155 146 105
-18.152 21.397 3.099 142 130 72
-18.796 21.397 2.812 177 172 143
-18.665 21.396 2.917 167 157 122
-18.867 21.397 2.795 181 173 150
-18.524 21.395 3.043 150 143 101
-18.391 21.396 3.054 146 138 91
-18.640 21.396 2.953 162 154 117
-18.613 21.396 2.938 163 155 118
-18.688 21.397 2.880 169 160 127
-18.740 21.397 2.870 171 162 131
-18.518 21.394 3.091 146 139 95
-18.345 21.397 3.012 151 142 99
-18.327 21.395 3.109 141 128 76
-18.448 21.395 3.064 150 136 91
-18.169 21.397 3.105 142 130 70
-18.422 21.395 3.084 146 135 89
-18.853 21.396 2.830 175 168 139
-18.514 21.394 3.095 148 137 91
-18.612 21.397 2.913 165 157 120
-18.789 21.396 2.852 174 163 135
-18.368 21.396 3.050 148 137 91
-18.766 21.397 2.835 172 165 137
-18.815 21.396 2.855 174 165 136
-18.541 21.395 3.017 154 145 104
-18.467 21.396 3.028 150 141 98
-18.549 21.397 2.919 163 153 117
-18.519 21.396 2.998 155 146 107
-18.173 21.397 3.103 142 130 70
-18.327 21.396 3.096 147 133 84
-18.749 21.397 2.858 173 164 133
-18.761 21.397 2.827 173 166 138
-18.817 21.397 2.816 175 170 140
-18.274 21.397 3.083 144 131 79
-18.340 21.396 3.055 148 138 89
-18.933 21.397 2.768 181 173 150
-18.521 21.394 3.062 148 140 94
-18.300 21.396 3.087 145 131 82
-18.683 21.395 2.954 162 154 118
-18.512 21.394 3.101 147 136 90
-18.886 21.397 2.791 180 173 145
-18.239 21.397 3.075 143 132 78
-18.503 21.397 2.951 158 150 111
-18.290 21.397 3.052 147 135 87
-18.654 21.395 2.981 158 150 113
-18.382 21.396 3.054 146 138 91
-18.660 21.397 2.894 171 158 124
-18.384 21.396 3.066 148 138 89
-18.982 21.397 2.726 181 174 146
-18.669 21.396 2.943 163 153 118
-18.822 21.397 2.806 177 172 143
-18.326 21.396 3.101 145 132 80
-18.388 21.396 3.046 147 139 93
-18.692 21.396 2.917 165 157 121
-18.770 21.396 2.865 172 163 130
-18.252 21.396 3.104 141 128 75
-18.674 21.396 2.918 167 157 122
-18.854 21.397 2.810 176 172 145
-18.678 21.396 2.910 167 157 122
-18.558 21.397 2.936 162 152 117
-18.679 21.396 2.918 167 157 122
-18.564 21.394 3.071 150 143 99
-18.668 21.397 2.894 169 159 124
-18.383 21.397 3.014 152 143 100
-18.273 21.397 3.076 143 131 79
-18.451 21.396 3.033 151 140 95
-18.401 21.396 3.028 151 139 97
-18.387 21.395 3.114 143 131 83
-18.366 21.396 3.043 147 139 93
-18.461 21.394 3.113 144 132 84
-18.572 21.396 2.974 160 150 114
-18.780 21.396 2.891 169 160 127
-18.399 21.397 2.992 154 145 104
-18.597 21.397 2.899 167 157 121
-18.520 21.394 3.104 143 135 89
-18.326 21.395 3.117 141 128 76
-18.366 21.395 3.094 146 134 84
-18.441 21.397 2.970 157 148 107
-18.912 21.397 2.784 182 172 147
-18.756 21.397 2.830 173 166 138
-18.441 21.395 3.084 148 137 92
-18.322 21.396 3.087 143 129 82
-18.504 21.395 3.037 151 144 100
-18.564 21.395 3.016 154 145 106
-18.852 21.397 2.801 179 171 148
-18.986 21.397 2.731 181 174 148
-18.499 21.394 3.071 148 140 94
-18.369 21.396 3.058 146 135 89
-18.482 21.394 3.104 145 133 83
-18.564 21.394 3.072 153 141 99
-18.653 21.395 2.962 160 152 115
-18.284 21.397 3.066 146 134 84
-18.287 21.396 3.102 142 129 74
-18.649 21.397 2.892 169 159 124
-18.631 21.395 2.978 159 151 114
-18.290 21.397 3.055 147 135 87
-18.418 21.394 3.121 141 128 86
-18.192 21.397 3.113 139 128 72
-18.499 21.396 3.009 154 145 104
-18.267 21.397 3.067 144 132 82
-18.190 21.397 3.103 141 129 69
-18.587 21.394 3.032 151 144 100
-18.506 21.395 3.034 152 145 101
-18.826 21.397 2.822 175 168 139
-18.763 21.397 2.841 174 165 134
-18.808 21.396 2.873 172 161 131
-18.767 21.397 2.836 172 165 137
-18.571 21.396 2.986 157 147 111
-18.632 21.395 2.998 156 148 109
-18.502 21.397 2.962 159 150 111
-18.441 21.397 2.991 155 148 106
-18.778 21.396 2.895 169 160 127
-18.442 21.395 3.081 148 137 92
-18.708 21.395 2.953 162 154 118
-18.638 21.397 2.888 169 158 126
-18.791 21.397 2.834 176 164 138
-18.720 21.396 2.915 167 158 125
-18.336 21.395 3.100 148 135 83
-18.511 21.396 2.980 160 147 112
-18.600 21.397 2.895 167 157 121
-18.372 21.395 3.091 146 134 82
-18.745 21.396 2.898 169 160 127
-18.291 21.397 3.041 149 136 91
-18.872 21.397 2.801 179 172 146
-18.736 21.397 2.845 173 164 133
-18.548 21.395 3.028 153 144 101
-18.463 21.396 2.998 153 146 104
-18.858 21.396 2.835 174 167 138
-18.228 21.397 3.086 142 131 77
-18.549 21.394 3.062 150 141 98
-18.867 21.397 2.802 179 172 146
-18.529 21.395 3.020 154 145 102
-18.474 21.397 2.972 156 148 109
-18.569 21.397 2.917 165 155 119
-18.333 21.396 3.063 146 136 85
-18.518 21.397 2.960 160 150 114
-18.482 21.395 3.044 150 143 97
-18.455 21.394 3.115 144 132 84
-18.316 21.396 3.103 141 128 75
-18.527 21.394 3.069 148 140 94
-18.927 21.397 2.773 181 173 150
-18.496 21.394 3.093 146 136 87
-18.832 21.397 2.825 175 168 139
-18.838 21.396 2.849 174 167 138
-18.468 21.394 3.097 146 134 86
-18.183 21.397 3.119 136 126 75
-18.626 21.396 2.935 164 155 116
-18.542 21.394 3.071 149 138 93
-18.599 21.395 3.012 155 147 108
-18.414 21.395 3.090 147 135 85
-18.780 21.397 2.844 173 163 136
-18.483 21.396 2.999 155 146 105
-18.622 21.397 2.890 168 159 126
-18.488 21.397 2.961 159 150 111
-18.626 21.397 2.892 169 158 126
-18.533 21.394 3.087 147 140 94
-18.356 21.396 3.051 148 137 91
-18.674 21.395 2.977 158 152 116
-18.514 21.396 2.988 157 148 107
-18.293 21.397 3.044 148 135 90
-18.766 21.396 2.861 173 164 131
-18.446 21.396 3.037 153 140 96
-18.699 21.395 2.943 165 155 120
-18.509 21.394 3.072 147 140 94
-18.313 21.397 3.045 146 138 91
-18.314 21.396 3.071 146 134 84
-18.419 21.395 3.065 147 139 92
-18.607 21.396 2.973 157 152 114
-18.189 21.397 3.099 141 129 69
-18.644 21.395 2.972 159 151 114
-18.457 21.395 3.078 148 134 87
-18.471 21.396 3.020 151 142 101
-18.340 21.397 3.016 149 141 95
-18.486 21.394 3.083 150 137 92
-18.458 21.396 3.002 153 146 104
-18.721 21.396 2.923 166 157 124
-18.454 21.397 2.977 156 147 106
-18.817 21.397 2.828 177 170 141
-18.510 21.396 2.978 160 147 112
-18.466 21.395 3.053 148 140 94
-18.484 21.394 3.105 144 132 84
-18.428 21.397 2.988 155 146 105
-18.710 21.396 2.902 167 158 125
-18.577 21.396 2.951 160 152 115
-18.572 21.396 2.949 160 152 116
-18.570 21.397 2.917 165 155 119
-18.584 21.394 3.041 152 145 101
-18.500 21.394 3.089 148 137 91
-18.362 21.395 3.095 146 134 84
-18.644 21.395 2.971 159 151 114
-18.592 21.395 2.990 157 149 112
-18.166 21.397 3.109 139 129 70
-18.682 21.395 2.967 162 154 118
-18.876 21.397 2.787 181 174 148
-18.532 21.396 2.998 156 147 108
-18.119 21.397 3.120 135 121 72
-18.477 21.397 2.940 162 149 114
-18.544 21.398 2.848 170 160 125
-18.305 21.398 2.963 154 145 102
-18.325 21.397 3.003 151 143 97
-18.219 21.398 2.856 164 155 116
-18.690 21.398 2.755 179 172 144
-18.267 21.398 2.880 164 152 114
-18.198 21.398 2.946 154 146 100
-18.398 21.398 2.894 163 154 115
-18.338 21.398 2.803 172 162 126
-18.550 21.398 2.878 167 157 121
-18.676 21.398 2.709 179 175 138
-18.272 21.398 2.745 168 160 123
-18.810 21.397 2.793 179 174 144
-18.561 21.398 2.717 176 168 132
-18.310 21.398 2.821 171 158 123
-18.328 21.398 2.788 172 164 128
-18.704 21.398 2.771 179 172 144
-18.880 21.398 2.729 181 174 146
-18.943 21.397 2.721 179 174 142
-18.267 21.397 3.025 148 137 91
-18.497 21.398 2.798 171 165 131
-18.231 21.398 2.767 169 160 121
-18.432 21.398 2.818 170 162 125
-18.411 21.398 2.731 175 166 133
-18.473 21.398 2.778 175 166 133
-18.683 21.397 2.843 171 165 133
-18.515 21.398 2.784 173 167 135
-18.232 21.398 2.854 166 154 116
-18.257 21.398 2.790 174 161 126
-18.446 21.398 2.859 167 157 121
-18.624 21.398 2.719 177 171 135
-18.198 21.399 2.719 170 162 123
-18.414 21.398 2.900 164 155 116
-18.171 21.398 2.795 165 153 113
-18.416 21.398 2.856 167 158 119
-18.558 21.398 2.850 171 161 126
-18.636 21.398 2.841 170 164 130
-18.326 21.398 2.834 171 158 123
-18.767 21.398 2.748 178 171 143
-18.213 21.399 2.706 170 162 125
-18.228 21.398 2.809 173 161 123
-18.163 21.398 3.045 148 135 83
-18.755 21.397 2.805 176 169 141
-18.795 21.398 2.718 179 174 144
-18.353 21.398 2.933 158 149 106
-18.726 21.398 2.711 178 174 139
-18.531 21.398 2.771 174 168 136
-18.880 21.397 2.753 179 172 146
-18.796 21.398 2.726 178 173 144
-18.720 21.398 2.787 177 170 142
-18.254 21.398 2.928 157 148 105
-18.591 21.398 2.762 171 166 134
-18.158 21.398 2.968 153 142 97
-18.588 21.397 2.888 167 157 121
-18.680 21.398 2.809 176 170 138
-18.304 21.398 2.728 169 163 127
-18.187 21.398 2.960 152 144 97
-18.814 21.398 2.747 178 172 146
-18.307 21.398 2.794 172 162 127
-18.209 21.398 2.964 152 144 98
-18.625 21.398 2.703 179 174 136
-18.364 21.398 2.832 170 157 122
-18.728 21.398 2.756 176 169 141
-18.809 21.398 2.724 178 173 143
-18.427 21.398 2.714 172 166 130
-18.582 21.398 2.835 171 162 131
-18.173 21.398 2.992 150 142 96
-18.163 21.398 2.844 160 151 110
-18.553 21.398 2.783 174 168 134
-18.208 21.398 2.903 158 149 108
-18.219 21.398 2.976 153 141 99
-18.495 21.398 2.845 168 158 122
-18.520 21.398 2.840 170 160 124
-18.296 21.398 2.846 169 157 119
-18.680 21.398 2.819 174 168 136
-18.221 21.398 2.803 173 161 123
-18.782 21.398 2.706 178 174 136
-18.293 21.398 2.966 153 145 99
-18.405 21.398 2.770 173 167 131
-18.586 21.398 2.830 173 164 131
-18.665 21.398 2.744 177 171 137
-18.558 21.398 2.793 177 168 137
-18.587 21.398 2.852 170 161 128
-18.511 21.398 2.867 166 156 120
-18.513 21.398 2.810 172 164 128
-18.735 21.398 2.705 179 175 138
-18.461 21.397 2.956 158 149 110
-18.875 21.397 2.752 179 172 146
-18.133 21.398 2.997 152 139 94
-18.303 21.398 2.869 166 154 116
-18.221 21.398 2.993 153 140 96
-18.475 21.398 2.802 174 165 132
-18.671 21.398 2.727 179 172 143
-18.248 21.398 2.847 167 155 117
-18.637 21.398 2.766 177 168 139
-18.528 21.397 2.926 163 153 117
-18.332 21.398 2.743 170 164 130
-18.500 21.397 2.921 163 154 115
-18.333 21.398 2.819 170 160 124
-18.361 21.398 2.963 154 145 104
-18.903 21.397 2.720 178 173 144
-18.250 21.397 3.029 147 136 90
-18.242 21.398 2.747 168 160 121
-18.232 21.398 2.889 163 151 111
-18.740 21.397 2.832 172 167 135
-18.815 21.397 2.789 178 172 146
-18.465 21.398 2.810 172 163 130
-18.339 21.398 2.956 155 146 105
-18.349 21.398 2.719 171 165 129
-18.210 21.397 3.048 147 135 85
-18.133 21.398 3.069 147 132 77
-18.412 21.397 2.951 159 150 109
-18.136 21.398 3.063 146 133 78
-18.474 21.397 2.929 161 152 113
-18.312 21.398 2.850 168 156 118
-18.455 21.398 2.826 170 160 125
-18.188 21.398 2.937 155 147 101
-18.657 21.398 2.722 178 172 140
-18.549 21.398 2.721 175 169 133
-18.733 21.398 2.717 178 173 141
-18.323 21.398 2.888 163 154 115
-18.389 21.398 2.709 171 167 129
-18.620 21.398 2.836 173 165 129
-18.389 21.398 2.922 161 152 113
-18.238 21.398 2.736 167 159 122
-18.260 21.397 3.020 148 137 92
-18.175 21.398 2.771 165 156 115
-18.710 21.398 2.752 177 170 142
-18.428 21.398 2.876 166 157 116
-18.232 21.398 2.733 168 160 123
-18.282 21.398 2.766 172 164 128
-18.356 21.398 2.832 171 158 123
-18.694 21.398 2.705 177 173 136
-18.299 21.397 3.008 150 142 96
-18.347 21.398 2.884 163 154 115
-18.152 21.398 2.945 153 145 99
-18.233 21.398 2.951 154 145 102
-18.287 21.398 2.871 165 153 113
-18.474 21.397 2.939 162 149 114
-18.197 21.398 2.794 167 155 115
-18.252 21.398 2.760 168 160 123
-18.918 21.397 2.747 178 172 148
-18.684 21.397 2.826 172 166 134
-18.636 21.398 2.782 174 168 136
-18.866 21.398 2.707 179 174 142
-18.513 21.397 2.926 162 153 112
-18.269 21.398 2.823 171 159 121
-18.369 21.398 2.946 160 148 106
-18.730 21.398 2.783 176 169 141
-18.282 21.398 2.874 165 153 113
-18.343 21.397 3.006 150 141 98
-18.544 21.398 2.862 169 159 123
-18.495 21.398 2.736 174 168 136
-18.410 21.397 2.962 158 149 106
-18.276 21.398 2.746 168 160 123
-18.472 21.398 2.812 171 163 127
-18.493 21.398 2.883 164 154 118
-18.338 21.397 3.006 150 141 98
-18.626 21.398 2.835 173 164 131
-18.359 21.397 2.983 152 144 105
-18.417 21.398 2.930 160 150 115
-18.195 21.397 3.073 148 132 80
-18.171 21.398 2.800 166 153 111
-18.623 21.398 2.837 173 164 131
-18.255 21.398 2.960 154 146 100
-18.747 21.398 2.754 177 170 142
-18.779 21.398 2.757 178 171 143
-18.614 21.398 2.787 173 168 136
-18.670 21.398 2.712 177 173 138
-18.441 21.398 2.879 166 157 116
-18.930 21.397 2.740 176 171 142
-18.149 21.397 3.091 146 131 76
-18.670 21.398 2.741 180 170 143
-18.224 21.398 2.947 155 146 103
-18.183 21.398 2.847 163 154 115
-18.917 21.398 2.704 180 176 141
-18.302 21.398 2.826 171 158 123
-18.429 21.398 2.917 162 153 114
-18.267 21.398 2.849 168 156 116
-18.375 21.398 2.957 157 148 109
-18.600 21.398 2.816 175 166 133
-18.351 21.398 2.834 170 157 122
-18.901 21.398 2.710 179 174 142
-18.225 21.398 3.025 146 138 91
-18.541 21.398 2.727 173 169 134
-18.775 21.397 2.782 180 173 145
-18.221 21.398 2.918 158 149 108
-18.272 21.398 2.876 165 153 115
-18.316 21.398 2.987 154 143 98
-18.320 21.398 2.949 156 147 106
-18.480 21.398 2.793 173 167 133
-18.196 21.398 2.906 158 149 108
-18.298 21.398 2.763 174 166 130
-18.826 21.397 2.783 178 172 146
-18.466 21.398 2.911 162 153 112
-18.158 21.397 3.077 145 132 77
-18.314 21.398 2.791 173 163 128
-18.323 21.397 3.019 148 140 93
-18.842 21.398 2.720 180 175 143
-18.847 21.397 2.775 180 174 148
-18.507 21.398 2.824 170 162 126
-18.471 21.398 2.738 176 170 138
-18.597 21.398 2.729 176 167 136
-18.545 21.398 2.778 174 168 134
-18.289 21.398 2.863 166 154 116
-18.882 21.398 2.720 180 175 146
-18.251 21.398 2.990 150 141 98
-18.790 21.398 2.763 180 173 145
-18.593 21.398 2.857 170 161 128
-18.692 21.398 2.786 178 171 143
-18.356 21.398 2.855 166 156 120
-18.206 21.398 2.975 153 142 97
-18.162 21.398 2.975 153 142 97
-18.537 21.398 2.817 169 163 129
-18.862 21.398 2.714 180 175 145
-18.374 21.398 2.719 173 164 131
-18.114 21.397 3.099 145 130 75
-18.614 21.397 2.879 169 160 127
-18.530 21.398 2.810 170 164 130
-18.382 21.398 2.769 175 170 132
-18.610 21.397 2.885 168 159 126
-18.494 21.398 2.836 169 159 123
-18.473 21.398 2.867 166 156 120
-18.590 21.398 2.725 177 168 135
-18.193 21.398 2.993 150 142 96
-18.348 21.398 2.918 160 151 110
-18.409 21.398 2.812 170 162 125
-18.352 21.398 2.809 171 161 125
-18.340 21.398 2.883 164 155 116
-18.314 21.398 2.840 169 156 121
-18.502 21.398 2.741 174 168 136
-18.131 21.398 3.021 150 136 87
-18.576 21.398 2.849 171 162 129
-18.609 21.398 2.847 171 162 131
-18.497 21.398 2.875 165 155 119
-18.146 21.398 2.934 155 147 101
-18.116 21.398 3.037 147 134 81
-18.880 21.398 2.721 180 175 146
-18.242 21.398 2.835 170 158 120
-18.330 21.398 2.859 165 155 119
-18.347 21.398 2.899 162 153 114
-18.667 21.397 2.833 172 166 134
-18.441 21.398 2.741 176 167 136
-18.330 21.398 2.856 166 156 120
-18.264 21.398 2.888 163 151 113
-18.165 21.398 2.976 153 142 97
-18.512 21.398 2.878 166 156 120
-18.183 21.398 2.860 161 152 113
-18.317 21.398 2.897 163 151 113
-18.660 21.397 2.851 169 163 129
-18.492 21.398 2.704 173 169 131
-18.131 21.398 3.011 151 137 88
-18.231 21.397 3.049 146 136 85
-18.271 21.397 3.009 149 141 95
-18.231 21.398 2.948 154 145 102
-18.301 21.398 2.851 168 156 118
-18.444 21.398 2.717 173 167 131
-18.366 21.398 2.768 175 167 131
-18.650 21.398 2.807 175 168 139
-18.591 21.398 2.806 174 168 136
-18.882 21.397 2.749 178 171 145
-18.292 21.398 2.889 164 152 112
-18.401 21.398 2.814 171 163 126
-18.560 21.397 2.887 167 157 121
-18.530 21.398 2.781 173 167 135
-18.133 21.397 3.103 138 126 68
-18.455 21.398 2.882 165 156 117
-18.619 21.398 2.722 176 170 136
-18.485 21.398 2.857 167 157 121
-18.226 21.398 2.752 166 158 119
-18.223 21.398 2.748 166 158 119
-18.195 21.398 2.910 158 149 106
-18.325 21.398 2.906 160 151 110
-18.405 21.398 2.843 167 158 119
-18.246 21.398 2.765 171 161 125
-18.502 21.398 2.731 174 168 136
-18.211 21.397 3.050 147 135 85
-18.578 21.398 2.786 175 166 133
-18.342 21.398 2.909 160 151 110
-18.405 21.398 2.730 176 167 134
-18.782 21.398 2.708 178 174 137
-18.383 21.398 2.897 163 154 115
-18.348 21.398 2.822 170 160 124
-18.561 21.398 2.864 168 158 123
-18.474 21.398 2.726 175 169 135
-18.169 21.398 3.038 149 136 84
-18.243 21.398 2.805 174 162 124
-18.666 21.398 2.793 177 171 139
-18.266 21.398 2.707 168 163 125
-18.125 21.398 3.038 149 136 83
-18.406 21.398 2.704 171 169 130
-18.735 21.397 2.811 176 169 141
-18.292 21.398 2.883 164 152 112
-18.125 21.398 3.064 147 134 81
-18.554 21.398 2.808 172 166 134
-18.595 21.398 2.782 171 166 134
-18.597 21.398 2.846 171 162 131
-18.349 21.398 2.805 171 161 125
-18.988 21.397 2.707 180 175 145
-18.561 21.398 2.856 170 160 125
-18.773 21.398 2.740 178 173 143
-18.179 21.398 3.027 150 138 90
-18.233 21.398 2.966 154 146 100
-18.478 21.398 2.852 167 157 121
-18.976 21.397 2.709 180 175 145
-18.517 21.398 2.719 172 168 131
-18.376 21.398 2.942 159 151 105
-18.390 21.398 2.710 173 167 131
-18.136 21.398 3.021 150 136 87
-18.262 21.398 2.986 150 142 96
-18.729 21.398 2.711 178 174 139
-18.312 21.397 3.019 148 140 93
-18.210 21.398 2.776 167 158 117
-18.479 21.398 2.735 176 170 138
-18.240 21.398 2.723 170 162 125
-18.316 21.397 3.007 150 142 96
-18.385 21.397 2.961 158 149 110
-18.866 21.398 2.720 179 174 145
-18.423 21.398 2.805 172 164 127
-18.730 21.398 2.728 179 172 143
-18.713 21.397 2.836 173 164 131
-18.509 21.398 2.850 168 158 122
-18.768 21.397 2.788 179 172 144
-18.588 21.397 2.882 168 158 123
-18.204 21.399 2.722 169 161 122
-18.357 21.398 2.796 173 163 127
-18.223 21.398 2.847 165 156 117
-18.219 21.398 2.968 153 144 101
-18.174 21.398 2.803 166 153 111
-18.626 21.398 2.713 178 172 136
-18.521 21.397 2.908 164 154 118
-18.548 21.398 2.783 173 167 133
-18.562 21.398 2.744 172 167 135
-18.113 21.397 3.085 145 130 75
-18.440 21.398 2.765 175 169 135
-18.288 21.398 2.960 154 146 100
-18.854 21.397 2.767 180 173 147
-18.701 21.397 2.837 170 164 128
-18.255 21.398 2.984 151 143 97
-18.243 21.398 2.968 153 145 99
-18.276 21.398 2.900 163 151 111
-18.871 21.398 2.703 178 175 142
-18.154 21.398 2.948 153 145 99
-18.278 21.398 2.960 153 145 99
-18.286 21.398 2.754 171 163 127
-18.713 21.398 2.795 176 171 142
-18.443 21.398 2.928 160 150 114
-18.362 21.398 2.881 164 155 116
-18.686 21.398 2.783 178 171 143
-18.261 21.398 2.859 166 154 114
-18.664 21.397 2.846 170 164 130
-18.724 21.398 2.731 178 171 142
-18.824 21.397 2.758 179 173 147
-18.643 21.398 2.795 174 169 139
-18.256 21.398 2.935 157 148 105
-18.586 21.398 2.816 175 166 133
-18.158 21.398 3.005 150 139 93
-18.163 21.398 3.020 151 139 91
-18.541 21.398 2.839 170 162 126
-18.297 21.398 2.779 174 164 129
-18.165 21.398 2.940 154 146 100
-18.124 21.397 3.081 146 130 78
-18.269 21.397 3.012 148 140 94
-18.562 21.398 2.803 174 168 134
-18.869 21.397 2.740 178 173 143
-18.381 21.398 2.859 165 155 119
-18.443 21.398 2.804 172 164 128
-18.107 21.398 3.075 146 131 76
-18.437 21.397 2.955 158 149 110
-18.289 21.398 2.738 171 163 127
-18.164 21.398 3.030 150 138 88
-18.214 21.398 2.765 167 158 117
-18.474 21.398 2.814 171 163 127
-18.373 21.398 2.724 175 166 133
-18.550 21.398 2.846 171 161 126
-18.507 21.398 2.718 173 167 133
-18.569 21.397 2.874 168 158 123
-18.488 21.397 2.932 161 152 111
-18.133 21.398 3.026 150 136 87
-18.230 21.398 2.978 152 144 98
-18.358 21.398 2.808 171 161 125
-18.403 21.398 2.832 168 158 122
-18.548 21.398 2.801 172 166 134
-18.433 21.397 2.969 157 150 108
-18.418 21.398 2.744 177 168 135
-18.623 21.398 2.720 176 170 136
-18.633 21.398 2.738 176 167 136
-18.377 21.397 2.969 156 147 108
-18.241 21.398 2.792 174 162 124
-18.212 21.398 2.807 172 160 122
-18.558 21.397 2.909 164 154 118
-18.298 21.398 2.956 155 146 103
-18.387 21.398 2.806 172 164 127
-18.675 21.398 2.765 180 173 147
-18.868 21.397 2.756 180 173 147
-18.375 21.398 2.913 163 154 113
-18.495 21.398 2.759 175 170 138
-18.468 21.398 2.835 169 159 123
-18.490 21.398 2.783 175 166 133
-18.239 21.398 2.827 171 159 121
-18.397 21.398 2.712 173 167 131
-18.516 21.398 2.745 174 168 136
-18.295 21.398 2.900 163 151 111
-18.502 21.398 2.899 165 155 119
-18.851 21.397 2.750 180 173 147
-18.460 21.397 2.924 161 151 115
-18.313 21.398 2.705 169 166 125
-18.209 21.398 2.784 168 159 118
-18.382 21.398 2.932 160 151 110
-18.105 21.397 3.100 143 128 73
-18.168 21.398 3.040 149 136 84
-18.202 21.398 2.759 165 158 116
-18.240 21.398 3.020 148 135 91
-18.212 21.397 3.051 147 135 85
-18.324 21.398 2.719 170 164 128
-18.641 21.398 2.817 174 168 136
-18.268 21.398 2.801 174 162 124
-18.796 21.398 2.742 178 171 143
-18.309 21.398 2.818 172 159 124
-18.383 21.398 2.912 161 152 113
-18.403 21.397 2.948 159 150 109
-18.348 21.398 2.889 162 153 114
-18.355 21.398 2.765 175 167 131
-18.697 21.398 2.795 176 169 141
-18.193 21.398 2.787 167 155 115
-18.651 21.398 2.731 179 170 141
-18.443 21.398 2.837 167 157 121
-18.647 21.398 2.799 175 170 140
-18.253 21.398 2.890 164 152 114
-18.529 21.398 2.728 172 168 133
-18.440 21.398 2.845 168 158 122
-18.605 21.398 2.825 174 165 132
-18.253 21.398 2.861 166 154 116
-18.319 21.398 2.815 173 160 126
-18.318 21.398 2.902 163 151 113
-18.277 21.398 2.911 162 150 110
-18.860 21.397 2.740 179 174 144
-18.789 21.398 2.721 178 173 144
-18.592 21.398 2.707 177 172 134
-18.445 21.398 2.787 172 166 132
-18.413 21.398 2.797 171 166 128
-18.175 21.398 2.849 162 153 112
-18.709 21.398 2.716 176 172 137
-18.563 21.398 2.711 175 171 134
-18.291 21.398 2.979 152 144 98
-18.338 21.398 2.922 159 150 109
-18.452 21.398 2.919 162 152 116
-18.308 21.398 2.799 172 162 127
-18.337 21.398 2.878 164 155 116
-18.584 21.398 2.708 178 173 135
-18.255 21.398 2.886 164 152 114
-18.472 21.398 2.740 176 170 138
-18.426 21.398 2.906 163 154 115
-18.396 21.397 2.979 155 146 105
-18.652 21.397 2.853 168 162 128
-18.591 21.398 2.812 176 167 134
-18.224 21.398 2.932 156 147 106
-18.173 21.398 2.778 166 154 114
-18.558 21.398 2.795 176 167 136
-18.777 21.398 2.736 178 173 144
-18.538 21.398 2.748 174 168 134
-18.662 21.398 2.751 178 172 140
-18.685 21.398 2.708 179 175 138
-18.732 21.398 2.750 178 171 143
-18.435 21.398 2.905 163 154 115
-18.371 21.398 2.756 175 170 132
-18.289 21.398 2.939 157 148 105
-18.501 21.398 2.838 169 159 123
-18.410 21.397 2.981 155 146 105
-18.631 21.398 2.799 173 168 136
-18.463 21.398 2.734 178 169 138
-18.273 21.398 2.984 151 143 97
-18.918 21.397 2.728 178 173 144
-18.648 21.398 2.808 175 168 139
-18.263 21.398 2.723 170 162 125
-18.534 21.398 2.876 167 158 119
-18.101 21.397 3.096 143 128 73
-18.247 21.398 2.975 152 144 98
-18.427 21.398 2.880 166 157 116
-18.208 21.398 2.964 152 144 98
-18.693 21.398 2.803 176 169 140
-18.179 21.398 3.046 149 136 84
-18.658 21.398 2.757 177 170 142
-18.619 21.398 2.770 172 166 134
-18.774 21.397 2.787 179 172 144
-18.766 21.397 2.799 177 172 143
-18.225 21.398 2.921 157 148 107
-18.139 21.397 3.103 139 127 69
-18.758 21.398 2.769 179 172 144
-18.415 21.398 2.910 162 153 114
-18.210 21.398 2.994 151 140 95
-18.779 21.398 2.729 177 172 143
-18.472 21.398 2.863 168 158 122
-18.336 21.398 2.722 169 163 127
-18.315 21.398 2.912 161 149 111
-18.193 21.398 2.984 152 141 96
-18.400 21.398 2.820 169 161 124
-18.789 21.398 2.726 178 173 144
-18.355 21.398 2.745 174 168 134
-18.194 21.399 2.734 167 159 120
-18.438 21.398 2.748 174 168 136
-18.207 21.398 3.005 150 138 96
-18.271 21.397 3.027 148 137 91
-18.129 21.397 3.109 138 125 70
-18.099 21.397 3.121 135 121 72
-18.363 21.398 2.822 170 160 124
-18.658 21.397 2.844 170 164 130
-18.468 21.398 2.895 164 155 114
-18.389 21.398 2.948 159 150 109
-18.700 21.398 2.808 174 167 138
-18.657 21.397 2.835 173 164 133
-18.805 21.397 2.790 179 174 144
-18.341 21.398 2.880 164 155 116
-18.196 21.398 3.039 150 136 87
-18.231 21.398 3.010 149 138 93
-18.391 21.398 2.834 168 159 120
-18.777 21.398 2.750 178 171 143
-18.196 21.398 2.888 160 151 110
-18.381 21.398 2.729 175 166 133
-18.169 21.398 2.941 154 146 100
-18.258 21.397 3.035 147 136 90
-18.720 21.397 2.828 172 166 134
-18.312 21.398 2.959 155 146 105
-18.258 21.398 2.911 158 149 108
-18.388 21.398 2.828 169 160 121
-18.712 21.397 2.810 175 168 139
-18.198 21.398 2.998 151 140 95
-18.550 21.398 2.738 173 167 133
-18.182 21.397 3.074 145 129 77
-18.360 21.398 2.778 174 166 130
-18.594 21.398 2.832 172 163 130
-18.160 21.398 2.835 161 152 111
-18.171 21.398 2.959 152 144 98
-18.350 21.398 2.971 152 145 103
-18.644 21.398 2.742 177 166 138
-18.421 21.398 2.923 160 151 112
-18.584 21.398 2.859 170 161 128
-18.471 21.398 2.798 172 166 132
-18.447 21.398 2.758 175 169 137
-18.120 21.398 3.074 146 130 78
-18.462 21.398 2.732 175 169 137
-18.776 21.398 2.773 180 173 145
-18.401 21.398 2.817 169 161 124
-18.124 21.398 3.071 148 132 80
-18.333 21.398 2.795 172 162 126
-18.688 21.397 2.851 170 164 132
-18.327 21.398 2.876 164 155 116
-18.155 21.398 2.878 159 150 109
-18.178 21.398 3.021 148 138 89
-18.391 21.398 2.888 163 153 117
-18.597 21.398 2.820 175 166 133
-18.334 21.398 2.921 159 150 109
-18.375 21.398 2.854 165 155 119
-18.270 21.398 2.868 166 154 116
-18.276 21.398 2.897 163 151 111
-18.458 21.398 2.740 178 169 138
-18.527 21.398 2.757 174 168 136
-18.291 21.398 2.855 167 155 117
-18.201 21.399 2.718 170 162 123
-18.226 21.398 2.749 167 159 120
-18.631 21.397 2.861 169 160 127
-18.437 21.398 2.736 176 167 134
-18.414 21.398 2.811 169 164 126
-18.184 21.397 3.074 145 129 77
-18.339 21.398 2.924 159 150 109
-18.602 21.398 2.828 173 164 131
-18.719 21.398 2.711 177 173 138
-18.292 21.398 2.880 164 152 112
-18.321 21.398 2.901 163 151 113
-18.138 21.398 3.019 151 137 88
-18.440 21.397 2.953 158 149 110
-18.335 21.398 2.778 173 165 129
-18.504 21.398 2.816 171 163 127
-18.808 21.397 2.774 177 171 145
-18.220 21.398 3.025 146 138 91
-18.310 21.398 2.822 171 158 123
-18.607 21.398 2.705 178 173 133
-18.196 21.398 2.996 152 141 96
-18.252 21.398 2.787 174 161 126
-18.615 21.398 2.761 173 167 135
-18.138 21.398 3.042 147 137 86
-18.719 21.397 2.813 174 167 138
-18.292 21.398 2.804 172 162 126
-18.590 21.398 2.800 174 168 136
-18.354 21.397 2.985 151 143 104
-18.413 21.398 2.835 168 160 123
-18.828 21.398 2.719 180 175 143
-18.707 21.398 2.755 179 172 144
-18.257 21.398 2.760 168 160 123
-18.730 21.398 2.744 177 170 142
-18.150 21.398 2.929 155 147 101
-18.697 21.397 2.817 173 167 135
-18.344 21.398 2.731 171 165 129
-18.448 21.398 2.876 166 157 118
-18.330 21.398 2.747 174 166 130
-18.228 21.398 3.014 149 136 92
-18.660 21.397 2.847 170 164 130
-18.153 21.398 2.995 151 140 95
-18.429 21.398 2.813 171 163 126
-18.577 21.398 2.836 171 162 131
-18.168 21.398 2.794 165 153 113
-18.203 21.398 3.038 149 137 87
-18.184 21.398 2.838 165 153 113
-18.280 21.397 3.040 149 135 90
-18.695 21.398 2.737 176 171 141
-18.736 21.398 2.720 179 174 142
-18.223 21.398 2.888 160 151 110
-18.144 21.398 2.933 154 146 100
-18.440 21.398 2.894 165 156 115
-18.700 21.397 2.817 174 168 136
-18.487 21.398 2.847 168 158 122
-18.566 21.398 2.760 172 168 133
-18.856 21.398 2.734 179 174 144
-18.465 21.398 2.806 172 163 130
-18.308 21.398 2.734 170 164 128
-18.295 21.398 2.714 168 162 126
-18.580 21.398 2.746 173 167 135
-18.262 21.398 2.884 164 152 114
-18.329 21.397 3.016 149 141 95
-18.331 21.398 2.709 170 165 127
-18.463 21.398 2.747 178 172 140
-18.185 21.398 3.001 149 141 95
-18.271 21.398 2.970 153 145 99
-18.246 21.398 2.728 169 161 124
-18.425 21.398 2.885 165 156 115
-18.154 21.398 3.021 151 139 91
-18.448 21.397 2.930 160 150 114
-18.638 21.398 2.764 178 169 140
-18.487 21.398 2.781 175 166 133
-18.492 21.397 2.936 161 152 111
-18.349 21.398 2.779 173 165 129
-18.630 21.397 2.847 169 163 129
-18.543 21.398 2.819 172 163 130
-18.215 21.398 2.776 168 159 118
-18.832 21.397 2.765 178 172 146
-18.268 21.397 3.024 148 137 91
-18.283 21.398 2.817 172 160 122
-18.811 21.398 2.750 178 172 146
-18.534 21.398 2.728 173 169 134
-18.257 21.398 2.865 166 154 116
-18.330 21.398 2.929 158 149 108
-18.602 21.398 2.714 176 170 134
-18.369 21.398 2.760 177 169 133
-18.697 21.398 2.774 179 172 146
-18.229 21.398 2.904 159 150 109
-18.519 21.398 2.884 166 157 118
-18.393 21.398 2.921 161 152 113
-18.771 21.398 2.748 178 171 143
-18.160 21.398 2.981 153 142 97
-18.441 21.398 2.716 173 167 131
-18.206 21.398 2.960 153 145 99
-18.303 21.398 2.891 163 151 111
-18.459 21.398 2.906 163 154 113
-18.793 21.398 2.713 178 174 139
-18.144 21.398 3.018 152 138 89
-18.139 21.398 2.972 153 142 97
-18.696 21.398 2.728 177 172 140
-18.644 21.398 2.816 174 168 136
-18.207 21.398 2.841 167 155 117
-18.430 21.398 2.782 173 167 131
-18.384 21.398 2.865 165 155 119
-18.295 21.398 2.905 162 150 110
-18.579 21.398 2.736 174 169 137
-18.472 21.398 2.737 176 170 138
-18.270 21.398 2.714 168 163 125
-18.384 21.397 2.968 157 148 109
-18.753 21.398 2.710 178 174 139
-18.470 21.398 2.738 176 170 138
-18.244 21.398 2.731 168 160 123
-18.578 21.398 2.837 171 162 131
-18.507 21.398 2.819 171 163 127
-18.414 21.398 2.803 170 165 127
-18.176 21.398 3.033 150 138 90
-18.255 21.398 2.796 174 162 124
-18.664 21.397 2.847 170 164 130
-18.901 21.397 2.730 180 174 148
-18.298 21.398 2.745 172 164 127
-18.729 21.398 2.753 178 171 143
-18.323 21.398 2.892 161 152 111
-18.819 21.398 2.707 180 176 139
-18.511 21.398 2.720 174 168 134
-18.559 21.398 2.714 175 169 133
-18.612 21.398 2.705 180 172 135
-18.942 21.397 2.729 178 173 143
-18.247 21.398 2.948 155 146 103
-18.625 21.398 2.812 174 168 136
-18.636 21.398 2.723 179 170 137
-18.863 21.397 2.740 178 173 143
-18.477 21.397 2.928 161 152 113
-18.154 21.398 2.852 160 151 110
-18.552 21.397 2.905 165 155 119
-18.180 21.397 3.081 142 130 70
-18.292 21.398 2.915 161 149 109
-18.540 21.398 2.859 169 159 123
-18.178 21.398 2.816 164 152 112
-18.864 21.397 2.765 180 173 147
-18.886 21.398 2.712 178 175 144
-18.227 21.398 2.752 166 158 119
-18.776 21.398 2.775 180 173 145
-18.290 21.397 3.029 146 138 91
-18.411 21.398 2.704 171 169 130
-18.286 21.398 2.733 169 163 127
-18.790 21.397 2.777 180 173 145
-18.457 21.398 2.875 166 157 118
-18.189 21.397 3.066 148 132 80
-18.163 21.398 2.938 154 147 103
-18.481 21.398 2.793 172 166 132
-18.159 21.398 3.058 146 133 81
-18.175 21.397 3.064 147 134 82
-18.314 21.398 2.802 172 162 127
-18.199 21.398 2.962 154 146 100
-18.516 21.398 2.753 175 169 137
-18.254 21.398 2.738 169 161 124
-18.256 21.397 3.044 147 137 88
-18.415 21.398 2.922 161 151 115
-18.272 21.398 2.721 170 162 125
-18.451 21.398 2.807 172 164 128
-18.558 21.397 2.886 167 157 121
-18.354 21.398 2.955 157 148 107
-18.830 21.397 2.753 179 173 147
-18.615 21.397 2.869 170 161 128
-18.652 21.398 2.795 176 171 141
-18.354 21.398 2.746 175 167 131
-18.347 21.398 2.709 171 166 128
-18.243 21.397 3.057 145 133 83
-18.284 21.398 2.719 169 163 127
-18.210 21.398 2.798 170 158 120
-18.842 21.398 2.707 178 174 139
-18.406 21.398 2.848 168 159 120
-18.164 21.398 2.931 153 146 102
-18.614 21.398 2.751 174 168 136
-18.841 21.397 2.770 179 173 147
-18.293 21.398 2.962 154 145 102
-18.695 21.397 2.844 170 163 134
-18.186 21.398 2.826 166 154 114
-18.549 21.398 2.810 171 165 133
-18.339 21.398 2.898 162 153 112
-18.219 21.398 3.028 146 138 91
-18.997 21.397 2.707 180 175 145
-18.517 21.398 2.729 172 168 133
-18.431 21.398 2.887 165 156 115
-18.643 21.398 2.735 179 168 140
-18.586 21.398 2.848 171 162 129
-18.378 21.398 2.777 175 167 130
-18.468 21.397 2.941 162 149 114
-18.772 21.397 2.802 177 172 143
-18.275 21.398 2.888 163 151 111
-18.666 21.398 2.709 176 173 138
-18.471 21.398 2.784 174 165 132
-18.392 21.398 2.725 175 166 133
-18.662 21.398 2.815 173 167 135
-18.818 21.398 2.735 180 173 145
-18.154 21.398 2.857 159 150 109
-18.259 21.398 2.718 170 162 125
-18.538 21.398 2.751 174 168 134
-18.308 21.398 2.745 172 164 127
-18.594 21.398 2.798 174 168 136
-18.323 21.398 2.857 165 155 119
-18.420 21.398 2.713 172 166 130
-18.551 21.398 2.716 175 169 133
-18.529 21.397 2.897 164 154 119
-18.434 21.397 2.960 158 149 110
-18.432 21.398 2.769 174 168 134
-18.691 21.398 2.763 179 172 146
-18.326 21.398 2.705 170 165 127
-18.590 21.398 2.806 174 168 136
-18.203 21.398 3.023 148 137 91
-18.168 21.398 3.029 151 139 91
-18.352 21.398 2.723 171 165 129
-18.553 21.398 2.858 169 159 124
-18.890 21.397 2.740 179 172 144
-18.427 21.398 2.717 172 166 130
-18.419 21.397 2.963 158 150 111
-18.208 21.398 3.027 148 137 91
-18.235 21.398 2.820 172 160 122
-18.215 21.398 2.758 166 159 117
-18.313 21.398 2.904 162 150 112
-18.408 21.398 2.807 171 163 126
-18.400 21.398 2.757 175 169 135
-18.414 21.398 2.802 170 165 127
-18.243 21.397 3.049 146 136 87
-18.151 21.398 3.017 151 139 91
-18.547 21.397 2.898 166 156 120
-18.575 21.398 2.706 176 172 134
-18.646 21.398 2.821 174 168 136
-18.647 21.398 2.786 175 169 137
-18.611 21.398 2.749 174 168 136
-18.376 21.397 2.979 154 145 104
-18.250 21.398 2.948 155 146 103
-18.422 21.398 2.766 175 169 133
-18.391 21.398 2.838 168 159 120
-18.437 21.398 2.896 164 155 116
-18.415 21.398 2.722 174 165 132
-18.981 21.397 2.705 181 176 146
-18.934 21.397 2.720 179 174 144
-18.255 21.397 3.027 148 137 91
-18.195 21.398 3.039 150 136 87
-18.368 21.398 2.863 166 157 118
-18.288 21.398 2.976 152 144 98
-18.306 21.398 2.974 153 144 101
-18.472 21.398 2.779 175 166 133
-18.278 21.398 2.729 168 162 126
-18.168 21.397 3.081 145 133 75
-18.247 21.398 2.982 151 143 97
-18.216 21.398 3.029 146 138 89
-18.290 21.398 2.906 162 150 110
-18.356 21.398 2.735 173 167 131
-18.342 21.397 2.979 152 145 103
-18.303 21.397 2.995 152 141 96
-18.293 21.398 2.783 173 163 128
-18.187 21.398 2.840 165 153 113
-18.548 21.398 2.792 173 167 133
-18.816 21.398 2.714 179 175 140
-18.804 21.397 2.793 178 173 143
-18.278 21.398 2.733 168 162 126
-18.486 21.398 2.901 163 154 115
-18.409 21.398 2.754 174 168 136
-18.404 21.398 2.869 166 157 118
-18.275 21.398 2.757 171 163 127
-18.456 21.397 2.949 159 150 111
-18.131 21.398 3.015 152 138 89
-18.178 21.398 3.049 149 136 84
-18.285 21.398 2.993 153 142 97
-18.608 21.398 2.811 176 167 136
-18.545 21.398 2.825 170 164 130
-18.345 21.397 2.981 151 144 102
-18.626 21.398 2.751 177 168 137
-18.510 21.397 2.935 162 153 112
-18.370 21.398 2.779 174 166 129
-18.454 21.398 2.866 166 157 118
-18.374 21.398 2.742 174 170 135
-18.348 21.398 2.758 174 166 130
-18.265 21.398 2.820 171 159 121
-18.477 21.398 2.737 176 170 138
-18.178 21.398 2.844 162 153 112
-18.870 21.397 2.746 180 173 147
-18.212 21.398 2.803 171 159 121
-18.123 21.398 3.043 147 134 81
-18.509 21.398 2.782 174 168 134
-18.691 21.398 2.778 179 172 144
-18.309 21.398 2.799 172 162 127
-18.359 21.398 2.723 172 166 130
-18.535 21.398 2.839 170 162 126
-18.845 21.398 2.730 181 174 145
-18.379 21.398 2.855 165 155 119
-18.288 21.398 2.734 171 163 127
-18.202 21.398 2.937 155 146 103
-18.440 21.398 2.891 165 156 115
-18.126 21.398 2.999 151 139 91
-18.415 21.398 2.709 170 166 129
-18.324 21.398 2.744 171 165 131
-18.379 21.398 2.851 165 155 119
-18.331 21.398 2.835 170 157 122
-18.404 21.398 2.941 160 151 112
-18.244 21.398 2.993 150 141 98
-18.367 21.398 2.830 170 157 122
-18.717 21.398 2.719 177 172 140
-18.418 21.398 2.920 161 151 115
-18.469 21.398 2.870 166 156 120
-18.325 21.398 2.760 174 166 130
-18.825 21.398 2.753 178 172 146
-18.210 21.398 2.754 166 159 117
-18.709 21.397 2.840 173 164 133
-18.455 21.398 2.909 162 153 114
-18.317 21.398 2.708 169 165 127
-18.332 21.398 2.912 160 151 110
-18.748 21.398 2.763 179 172 144
-18.299 21.398 2.729 169 163 127
-18.424 21.398 2.725 170 164 128
-18.115 21.397 3.113 139 126 73
-18.474 21.398 2.742 177 171 139
-18.366 21.398 2.933 159 150 107
-18.669 21.398 2.715 176 172 137
-18.502 21.397 2.915 163 154 115
-18.422 21.398 2.797 170 164 128
-18.126 21.397 3.079 146 130 78
-18.451 21.398 2.798 171 165 131
-18.199 21.398 2.975 153 142 97
-18.329 21.398 2.980 153 146 102
-18.255 21.398 2.943 155 146 103
-18.367 21.398 2.797 173 163 127
-18.205 21.398 2.756 166 159 117
-18.473 21.398 2.782 175 166 133
-18.497 21.398 2.794 172 166 132
-18.322 21.398 2.836 171 158 123
-18.733 21.398 2.783 177 170 142
-18.483 21.398 2.766 175 169 137
-18.399 21.398 2.707 172 168 130
-18.576 21.397 2.874 170 160 125
-18.502 21.398 2.782 174 168 134
-18.418 21.398 2.827 171 162 123
-18.390 21.398 2.873 164 154 118
-18.181 21.398 2.848 163 154 115
-18.515 21.398 2.896 164 154 119
-18.161 21.398 3.005 150 139 93
-18.232 21.398 2.989 151 139 97
-18.433 21.398 2.801 172 164 128
-18.414 21.398 2.918 161 151 115
-18.311 21.398 2.899 163 151 113
-18.133 21.398 2.948 153 145 99
-18.253 21.398 2.888 164 152 114
-18.148 21.398 3.005 152 139 94
-18.324 21.398 2.944 159 147 109
-18.594 21.398 2.840 172 163 132
-18.438 21.398 2.709 172 167 129
-18.711 21.398 2.726 177 170 141
-18.484 21.398 2.860 167 157 121
-18.160 21.398 2.976 153 142 97
-18.225 21.398 2.993 153 140 96
-18.469 21.398 2.724 175 169 135
-18.430 21.397 2.942 158 150 111
-18.218 21.398 2.870 162 153 112
-18.192 21.397 3.055 147 134 82
-18.718 21.398 2.776 177 170 142
-18.624 21.397 2.876 169 160 127
-18.339 21.398 2.791 172 164 128
-18.383 21.398 2.803 173 165 129
-18.399 21.398 2.819 170 162 125
-18.506 21.398 2.770 174 169 137
-18.657 21.397 2.847 170 164 130
-18.208 21.399 2.724 168 160 121
-18.703 21.398 2.799 176 169 141
-18.450 21.398 2.849 168 158 122
-18.499 21.397 2.916 163 154 115
-18.610 21.398 2.708 180 172 135
-18.577 21.398 2.724 177 168 135
-18.162 21.398 2.932 153 146 102
-18.175 21.398 2.902 157 148 107
-18.537 21.398 2.861 168 158 122
-18.185 21.398 2.896 159 150 109
-18.872 21.397 2.770 181 174 148
-18.515 21.397 2.912 163 153 117
-18.119 21.397 3.092 146 131 76
-18.737 21.398 2.791 177 170 144
-18.532 21.398 2.761 175 169 137
-18.624 21.398 2.765 173 167 135
-18.383 21.398 2.840 170 158 118
-18.288 21.398 2.768 173 165 129
-18.537 21.398 2.721 173 169 132
-18.630 21.398 2.786 173 168 136
-18.280 21.398 2.919 160 148 108
-18.206 21.398 2.779 166 157 116
-18.274 21.398 2.713 168 163 125
-18.758 21.398 2.749 177 170 142
-18.288 21.398 2.802 172 162 126
-18.443 21.398 2.830 169 159 123
-18.373 21.398 2.878 164 154 118
-18.469 21.398 2.791 174 165 132
-18.422 21.398 2.741 175 166 133
-18.266 21.398 2.955 154 145 102
-18.458 21.398 2.728 174 168 134
-18.558 21.398 2.720 175 169 133
-18.281 21.397 3.021 147 139 92
-18.346 21.398 2.953 156 147 106
-18.283 21.398 2.766 173 165 129
-18.429 21.398 2.883 165 156 115
-18.168 21.398 2.839 162 153 112
-18.756 21.398 2.785 178 171 143
-18.234 21.398 2.936 155 146 103
-18.832 21.398 2.741 178 171 142
-18.461 21.397 2.923 161 151 115
-18.252 21.397 3.018 149 138 93
-18.216 21.398 2.925 156 147 106
-18.585 21.397 2.893 166 156 120
-18.331 21.398 2.863 165 156 117
-18.490 21.398 2.712 172 168 131
-18.306 21.398 2.871 166 154 114
-18.853 21.398 2.737 179 174 144
-18.222 21.398 2.925 156 147 106
-18.420 21.398 2.884 165 156 115
-18.425 21.398 2.732 173 167 133
-18.258 21.398 2.791 174 161 126
-18.246 21.398 3.000 149 141 95
-18.236 21.398 2.882 164 152 112
-18.193 21.398 2.764 166 157 116
-18.733 21.398 2.708 178 174 137
-18.676 21.398 2.708 179 175 138
-18.587 21.398 2.788 173 167 133
-18.835 21.398 2.749 178 172 146
-18.738 21.398 2.728 179 172 143
-18.560 21.398 2.709 175 169 133
-18.349 21.398 2.923 159 150 109
-18.344 21.398 2.925 159 150 109
-18.578 21.397 2.895 167 158 119
-18.303 21.398 2.991 153 142 97
-18.647 21.398 2.797 175 170 140
-18.209 21.398 2.939 154 146 100
-18.439 21.398 2.915 162 153 114
-18.198 21.398 2.801 167 155 115
-18.206 21.398 2.962 153 145 99
-18.800 21.398 2.725 178 173 144
-18.655 21.398 2.748 181 169 145
-18.146 21.398 2.945 154 146 100
-18.320 21.398 2.986 154 143 98
-18.185 21.399 2.716 168 160 121
-18.762 21.398 2.734 178 173 143
-18.279 21.398 2.883 164 152 112
-18.640 21.398 2.781 175 169 137
-18.400 21.398 2.726 176 167 134
-18.253 21.398 2.916 158 149 108
-18.660 21.397 2.847 170 164 130
-18.165 21.398 2.979 153 142 97
-18.225 21.398 2.837 168 156 118
-18.199 21.398 3.016 148 137 92
-18.286 21.398 2.885 164 152 112
-18.808 21.398 2.712 179 175 140
-18.263 21.398 2.918 158 149 108
-18.293 21.398 2.835 169 157 119
-18.810 21.398 2.722 178 173 143
-18.779 21.398 2.721 178 173 143
-18.321 21.398 2.959 155 146 105
-18.235 21.398 2.779 171 162 123
-18.210 21.398 2.776 167 158 117
-18.398 21.398 2.886 164 155 116
-18.192 21.397 3.059 147 134 82
-18.240 21.398 2.996 151 139 97
-18.148 21.398 3.030 150 136 87
-18.215 21.398 2.747 166 159 117
-18.540 21.398 2.759 174 168 134
-18.352 21.398 2.709 173 168 130
-18.198 21.398 2.968 151 143 97
-18.267 21.398 2.852 167 155 115
-18.312 21.398 2.960 155 146 103
-18.709 21.397 2.844 172 163 132
-18.302 21.398 2.962 154 145 102
-18.280 21.398 2.798 172 162 126
-18.270 21.398 2.794 174 161 126
-18.427 21.398 2.849 167 158 119
-18.355 21.398 2.807 171 161 125
-18.335 21.398 2.946 159 147 109
-18.361 21.397 2.986 153 144 103
-18.274 21.398 2.747 169 161 125
-18.141 21.398 3.032 150 136 87
-18.236 21.398 2.845 167 155 117
-18.511 21.398 2.865 166 156 120
-18.161 21.398 2.886 159 150 109
-18.663 21.398 2.708 176 173 138
-18.939 21.397 2.738 178 173 144
-18.334 21.398 2.754 174 166 130
-18.535 21.398 2.787 173 167 133
-18.457 21.398 2.865 166 157 118
-18.725 21.398 2.715 178 174 139
-18.258 21.398 2.760 168 160 123
-18.575 21.397 2.901 166 157 118
-18.414 21.398 2.793 173 165 128
-18.794 21.397 2.801 179 172 144
-18.608 21.398 2.837 172 164 128
-18.418 21.398 2.740 176 167 134
-18.291 21.398 2.766 174 166 130
-18.571 21.397 2.884 168 158 122
-18.816 21.398 2.724 178 171 142
-18.593 21.397 2.883 168 158 123
-18.345 21.398 2.940 159 147 107
-18.846 21.398 2.728 181 175 143
-18.404 21.398 2.896 163 154 115
-18.594 21.398 2.756 173 166 137
-18.451 21.398 2.926 161 151 115
-18.255 21.398 2.712 169 164 126
-18.136 21.397 3.104 139 127 69
-18.154 21.398 2.990 151 140 95
-18.322 21.398 2.898 163 151 113
-18.315 21.398 2.953 155 146 105
-18.345 21.398 2.968 154 145 104
-18.220 21.398 2.848 165 156 117
-18.343 21.398 2.731 171 165 129
-18.341 21.397 3.012 151 143 97
-18.687 21.397 2.840 170 164 132
-18.391 21.398 2.770 174 168 132
-18.483 21.398 2.749 176 170 138
-18.540 21.398 2.733 173 169 134
-18.532 21.398 2.869 167 157 121
-18.290 21.398 2.868 165 153 115
-18.197 21.398 2.998 151 140 95
-18.470 21.398 2.840 169 159 123
-18.488 21.397 2.913 164 155 116
-18.586 21.398 2.859 170 161 128
-18.212 21.398 2.876 162 153 112
-18.942 21.397 2.706 179 175 138
-18.741 21.397 2.798 179 169 144
-18.242 21.398 2.886 164 152 112
-18.436 21.398 2.899 164 155 116
-18.178 21.398 2.781 163 154 111
-18.497 21.398 2.856 167 157 121
-18.585 21.398 2.834 171 162 129
-18.898 21.397 2.727 180 174 148
-18.250 21.397 3.040 147 137 88
-18.536 21.398 2.866 167 157 121
-18.459 21.398 2.856 167 157 121
-18.196 21.398 2.747 166 159 117
-18.468 21.398 2.779 175 166 133
-18.278 21.398 2.799 172 162 126
-18.171 21.397 3.088 146 131 76
-18.273 21.398 2.844 168 156 116
-18.291 21.398 2.716 169 163 127
-18.341 21.398 2.973 153 146 104
-18.298 21.398 2.846 168 156 118
-18.344 21.397 3.001 150 141 98
-18.612 21.398 2.737 174 168 136
-18.356 21.398 2.819 171 161 125
-18.234 21.398 2.890 163 151 111
-18.303 21.398 2.752 173 165 129
-18.549 21.398 2.838 168 162 128
-18.634 21.397 2.874 170 161 128
-18.304 21.398 2.788 173 163 128
-18.649 21.398 2.796 175 170 140
-18.589 21.398 2.786 172 166 132
-18.697 21.398 2.760 178 171 145
-18.275 21.397 3.020 147 139 93
-18.316 21.398 2.830 170 157 122
-18.377 21.397 2.971 156 147 108
-18.234 21.398 2.727 169 161 124
-18.190 21.398 2.970 153 142 96
-18.331 21.398 2.744 170 164 130
-18.441 21.397 2.948 158 149 110
-18.309 21.398 2.796 172 162 127
-18.543 21.398 2.787 173 167 133
-18.337 21.398 2.704 171 166 128
-18.650 21.398 2.806 175 168 139
-18.135 21.398 3.018 151 137 88
-18.573 21.398 2.717 176 168 132
-18.344 21.398 2.910 160 151 110
-18.223 21.398 3.024 146 138 91
-18.383 21.398 2.877 164 154 118
-18.726 21.397 2.825 173 167 135
-18.506 21.398 2.841 168 158 122
-18.439 21.398 2.887 165 156 115
-18.368 21.398 2.790 173 165 129
-18.280 21.398 2.942 156 147 104
-18.153 21.397 3.071 146 133 78
-18.764 21.398 2.725 180 175 145
-18.654 21.398 2.804 175 168 139
-18.158 21.398 2.967 153 142 97
-18.362 21.398 2.733 173 167 131
-18.499 21.398 2.862 167 157 121
-18.262 21.398 2.828 170 158 120
-18.602 21.398 2.749 176 167 138
-18.338 21.398 2.764 174 166 130
-18.162 21.398 2.860 160 151 110
-18.579 21.398 2.742 173 168 136
-18.864 21.398 2.714 180 175 145
-18.446 21.398 2.720 173 167 131
-18.146 21.397 3.076 146 131 76
-18.962 21.397 2.705 178 175 142
-18.276 21.398 2.920 160 148 108
-18.287 21.398 2.780 173 163 128
-18.114 21.397 3.113 139 126 73
-18.242 21.398 2.750 168 160 121
-18.153 21.398 3.031 149 135 86
-18.384 21.398 2.901 163 154 115
