-17.519 3.058 0.116 152 143 128
-17.514 3.066 0.117 154 147 131
-17.508 3.086 0.249 179 164 143
-17.511 3.082 0.257 176 159 139
-17.528 3.055 0.257 153 145 124
-17.526 3.049 0.155 138 134 125
-17.508 3.069 0.041 44 45 47
-17.511 3.066 0.057 47 47 47
-17.524 3.048 0.096 87 89 78
-17.509 3.077 0.166 142 143 129
-17.526 3.065 0.330 154 148 126
-17.531 3.040 0.134 151 144 128
-17.517 3.082 0.377 166 158 135
-17.511 3.066 0.058 47 47 47
-17.527 3.062 0.317 157 149 126
-17.508 3.085 0.234 128 118 106
-17.508 3.078 0.156 147 144 127
-17.518 3.078 0.344 162 154 133
-17.503 3.078 0.043 48 49 51
-17.513 3.067 0.114 150 143 127
-17.509 3.078 0.159 153 152 134
-17.507 3.073 0.068 56 56 56
-17.505 3.074 0.042 46 47 49
-17.515 3.073 0.221 138 131 115
-17.519 3.065 0.201 132 126 114
-17.515 3.092 0.454 173 165 146
-17.518 3.069 0.237 155 144 124
-17.519 3.068 0.248 160 145 124
-17.512 3.080 0.254 173 157 134
-17.529 3.056 0.280 153 147 125
-17.518 3.081 0.383 168 160 137
-17.510 3.071 0.105 150 141 126
-17.515 3.070 0.179 131 132 118
-17.530 3.049 0.236 139 134 112
-17.519 3.078 0.369 164 156 135
-17.512 3.091 0.378 175 167 146
-17.509 3.085 0.258 179 164 143
-17.527 3.060 0.297 161 150 130
-17.512 3.081 0.270 173 157 134
-17.516 3.087 0.413 170 162 141
-17.509 3.077 0.155 147 144 127
-17.516 3.087 0.416 170 162 141
-17.525 3.061 0.277 158 150 129
-17.515 3.070 0.198 134 130 121
-17.521 3.051 0.082 46 47 41
-17.517 3.067 0.195 133 124 115
-17.527 3.058 0.263 156 148 127
-17.518 3.070 0.254 162 147 126
-17.516 3.078 0.296 170 152 128
-17.505 3.076 0.069 53 53 51
-17.513 3.087 0.339 170 164 142
-17.510 3.066 0.048 48 49 51
-17.511 3.067 0.073 49 49 47
-17.523 3.071 0.349 159 151 130
-17.527 3.047 0.138 143 140 125
-17.505 3.074 0.057 41 41 41
-17.512 3.076 0.202 132 129 120
-17.512 3.076 0.207 133 129 120
-17.510 3.080 0.201 138 135 128
-17.528 3.052 0.222 154 142 116
-17.518 3.078 0.335 162 156 134
-17.521 3.068 0.277 162 150 128
-17.518 3.076 0.329 163 157 135
-17.516 3.062 0.097 156 153 144
-17.505 3.079 0.102 151 142 127
-17.512 3.070 0.134 146 140 126
-17.512 3.090 0.366 174 166 145
-17.530 3.041 0.121 150 141 126
-17.526 3.049 0.147 137 135 120
-17.518 3.065 0.192 135 128 118
-17.523 3.051 0.119 147 137 125
-17.513 3.088 0.359 171 163 142
-17.503 3.076 0.024 50 52 49
-17.514 3.061 0.063 47 47 47
-17.512 3.082 0.275 172 156 133
-17.531 3.049 0.245 133 128 106
-17.507 3.074 0.073 47 47 45
-17.511 3.065 0.050 47 48 50
-17.524 3.058 0.215 159 148 128
-17.512 3.088 0.346 166 158 139
-17.527 3.061 0.301 160 149 129
-17.516 3.091 0.461 175 167 146
-17.528 3.056 0.267 156 148 127
-17.504 3.080 0.102 151 139 125
-17.518 3.087 0.437 172 165 146
-17.509 3.077 0.168 142 143 129
-17.513 3.064 0.071 47 47 47
-17.517 3.067 0.196 129 125 114
-17.518 3.081 0.384 168 160 137
-17.521 3.059 0.162 148 140 129
-17.520 3.082 0.412 165 157 134
-17.523 3.060 0.235 157 146 124
-17.526 3.061 0.279 158 150 129
-17.521 3.061 0.193 132 122 113
-17.515 3.080 0.318 172 160 134
-17.516 3.059 0.079 48 49 44
-17.509 3.072 0.089 131 127 118
-17.515 3.072 0.213 130 122 111
-17.516 3.060 0.083 48 47 42
-17.530 3.049 0.225 135 131 106
-17.520 3.067 0.255 159 147 125
-17.516 3.086 0.398 170 162 141
-17.525 3.057 0.227 160 148 124
-17.516 3.086 0.387 171 163 140
-17.520 3.073 0.326 158 152 128
-17.506 3.081 0.139 145 139 125
-17.526 3.060 0.270 158 150 129
-17.513 3.075 0.209 131 127 118
-17.529 3.042 0.130 150 143 127
-17.521 3.075 0.361 161 153 132
-17.507 3.073 0.074 47 47 45
-17.520 3.074 0.338 156 151 131
-17.519 3.065 0.205 139 131 118
-17.519 3.077 0.350 164 156 135
-17.529 3.052 0.240 151 144 118
-17.519 3.079 0.382 166 158 135
-17.516 3.081 0.342 165 157 138
-17.517 3.076 0.291 168 153 132
-17.515 3.088 0.403 173 165 144
-17.518 3.083 0.412 169 161 138
-17.517 3.080 0.337 164 158 136
-17.515 3.075 1.521 159 144 115
-17.518 3.069 1.432 162 148 119
-17.525 3.064 1.547 157 142 119
-17.539 3.050 1.597 121 113 90
-17.534 3.054 1.557 150 138 116
-17.532 3.057 1.562 156 144 120
-17.536 3.053 1.587 138 132 110
-17.548 3.042 1.696 116 105 85
-17.549 3.041 1.683 103 94 77
-17.516 3.070 1.399 161 147 118
-17.521 3.070 1.607 156 145 117
-17.534 3.055 1.591 142 136 112
-17.548 3.042 1.699 115 104 84
-17.530 3.058 1.516 155 143 119
-17.519 3.071 1.522 161 145 119
-17.513 3.080 1.667 158 143 114
-17.507 3.085 1.582 158 143 114
-17.546 3.043 1.688 107 96 78
-17.526 3.063 1.531 158 143 120
-17.533 3.057 1.627 151 145 123
-17.514 3.072 1.350 163 147 121
-17.509 3.079 1.437 159 145 116
-17.512 3.074 1.384 162 146 120
-17.522 3.070 1.664 161 146 117
-17.517 3.071 1.461 163 148 119
-17.509 3.080 1.471 158 145 113
-17.511 3.073 1.277 159 145 119
-17.512 3.081 1.624 159 144 115
-17.511 3.073 1.288 161 147 121
-17.534 3.055 1.553 152 137 116
-17.513 3.071 1.304 160 146 119
-17.540 3.048 1.562 135 122 105
-17.549 3.039 1.609 102 95 76
-17.507 3.077 1.241 160 150 123
-17.512 3.081 1.655 160 145 116
-17.520 3.073 1.655 161 146 117
-17.507 3.080 1.372 161 145 119
-17.530 3.060 1.633 153 147 125
-17.520 3.067 1.455 162 148 121
-17.528 3.058 1.423 158 147 125
-17.539 3.050 1.616 127 121 99
-17.535 3.056 1.662 152 140 116
-17.533 3.054 1.506 149 139 114
-17.527 3.060 1.481 161 147 120
-17.524 3.063 1.431 160 148 122
-17.545 3.042 1.576 107 101 79
-17.512 3.074 1.333 160 146 119
-17.536 3.050 1.461 135 127 104
-17.524 3.066 1.607 155 145 118
-17.526 3.061 1.463 160 148 124
-17.530 3.060 1.633 153 147 125
-17.513 3.079 1.581 157 144 112
-17.522 3.071 1.707 162 147 118
-17.537 3.049 1.473 146 140 116
-17.540 3.047 1.548 122 111 93
-17.527 3.063 1.591 157 147 120
-17.532 3.057 1.548 157 142 121
-17.512 3.082 1.696 161 146 115
-17.507 3.077 1.241 160 150 123
-17.517 3.070 1.433 162 148 119
-17.514 3.077 1.559 158 143 114
-17.547 3.041 1.606 101 94 75
-17.528 3.063 1.623 150 142 119
-17.528 3.065 1.711 155 144 116
-17.526 3.065 1.637 156 144 120
-17.533 3.054 1.476 154 142 116
-17.509 3.083 1.579 158 143 114
-17.513 3.073 1.376 161 145 119
-17.532 3.056 1.521 154 142 120
-17.530 3.059 1.548 158 143 122
-17.512 3.074 1.349 163 147 121
-17.517 3.071 1.460 163 148 119
-17.518 3.069 1.428 162 148 119
-17.528 3.063 1.646 155 143 119
-17.520 3.069 1.488 162 147 116
-17.515 3.072 1.396 160 147 115
-17.533 3.056 1.584 149 142 116
-17.505 3.082 1.379 162 146 120
-17.515 3.079 1.707 162 145 115
-17.524 3.065 1.513 160 146 120
-17.512 3.072 1.279 160 146 120
-17.546 3.045 1.701 121 110 88
-17.526 3.066 1.691 159 145 118
-17.534 3.055 1.554 152 137 116
-17.511 3.083 1.692 161 146 115
-17.521 3.065 1.394 158 146 120
-17.517 3.074 1.593 158 145 113
-17.528 3.061 1.588 154 147 121
-17.505 3.081 1.314 157 145 119
-17.533 3.058 1.672 153 141 115
-17.534 3.056 1.635 143 136 117
-17.518 3.072 1.521 160 145 116
-17.520 3.072 1.654 161 146 117
-17.508 3.084 1.620 159 144 115
-17.536 3.053 1.576 139 131 112
-17.532 3.059 1.681 158 144 117
-17.523 3.067 1.541 158 142 117
-17.519 3.072 1.578 156 145 115
-17.516 3.076 1.656 161 146 117
-17.507 3.081 1.390 161 145 119
-17.524 3.062 1.394 157 145 121
-17.534 3.053 1.505 149 139 114
-17.518 3.068 1.368 161 147 121
-17.546 3.041 1.576 107 101 79
-17.525 3.062 1.485 161 147 120
-17.511 3.082 1.640 159 144 115
-17.532 3.057 1.578 149 142 116
-17.521 3.070 1.589 157 146 118
-17.538 3.051 1.626 139 132 113
-17.546 3.045 1.694 121 108 89
-17.515 3.070 1.320 160 146 119
-17.512 3.078 1.518 157 142 111
-17.515 3.070 1.320 161 147 120
-17.545 3.045 1.667 112 103 86
-17.515 3.076 1.602 158 143 112
-17.528 3.061 1.556 160 145 122
-17.523 3.066 1.506 159 145 118
-17.510 3.078 1.417 159 146 114
-17.518 3.070 1.479 161 146 115
-17.527 3.060 1.498 158 146 120
-17.507 3.080 1.365 162 146 120
-17.528 3.062 1.620 149 141 118
-17.537 3.050 1.483 142 136 110
-17.526 3.063 1.527 158 143 120
-17.535 3.051 1.455 137 129 106
-17.522 3.063 1.383 159 147 121
-17.544 3.043 1.570 107 99 78
-17.525 3.066 1.622 154 144 119
-17.511 3.075 1.350 163 147 121
-17.535 3.053 1.521 149 138 116
-17.530 3.059 1.581 149 142 114
-17.509 3.077 1.319 160 146 119
-17.545 3.045 1.678 110 101 84
-17.537 3.051 1.527 133 125 104
-17.515 3.072 1.423 160 147 115
-17.535 3.056 1.706 158 148 121
-17.512 3.076 1.449 159 144 115
-17.544 3.044 1.549 113 105 84
-17.517 3.070 1.383 162 148 121
-17.512 3.081 1.648 159 144 115
-17.521 3.073 1.712 160 145 114
-17.530 3.057 1.495 156 144 120
-17.535 3.055 1.627 144 137 118
-17.549 3.041 1.681 103 94 77
-17.524 3.063 1.433 160 148 122
-17.520 3.068 1.465 164 149 120
-17.531 3.059 1.617 149 143 119
-17.529 3.058 1.461 158 147 125
-17.508 3.079 1.396 160 146 117
-17.520 3.071 1.587 155 144 114
-17.535 3.051 1.487 143 137 111
-17.518 3.070 1.478 161 146 115
-17.525 3.066 1.617 153 143 118
-17.514 3.079 1.692 160 145 114
-17.507 3.079 1.332 160 146 119
-17.523 3.066 1.529 159 145 119
-17.521 3.068 1.534 157 141 115
-17.506 3.079 1.268 158 146 120
-17.515 3.075 1.536 157 142 113
-17.532 3.060 1.692 156 144 118
-17.516 3.069 1.319 160 146 119
-17.527 3.064 1.668 162 148 121
-17.528 3.064 1.692 159 145 118
-17.519 3.070 1.514 162 146 120
-17.522 3.065 1.470 162 148 121
-17.542 3.045 1.541 108 101 82
-17.507 3.078 1.276 158 146 120
-17.513 3.080 1.686 159 144 113
-17.514 3.076 1.516 158 143 114
-17.534 3.057 1.645 151 140 118
-17.506 3.080 1.312 157 145 119
-17.536 3.055 1.691 152 140 114
-17.508 3.083 1.523 156 142 113
-17.513 3.078 1.533 158 143 114
-17.512 3.080 1.619 159 144 115
-17.537 3.053 1.653 140 133 115
-17.507 3.085 1.611 159 144 113
-17.528 3.059 1.489 160 146 119
-17.510 3.079 1.439 158 145 113
-17.523 3.066 1.541 158 142 117
-17.549 3.040 1.666 101 92 75
-17.521 3.065 1.398 159 148 120
-17.505 3.079 1.227 159 148 120
-17.528 3.060 1.528 154 142 118
-17.519 3.069 1.492 162 147 118
-17.529 3.059 1.535 158 146 124
-17.512 3.081 1.642 159 144 115
-17.516 3.077 1.659 161 146 117
-17.536 3.056 1.698 156 144 118
-17.520 3.073 1.698 160 145 114
-17.524 3.067 1.650 160 146 120
-17.521 3.064 1.365 160 148 122
-17.541 3.047 1.455 123 118 96
-17.513 3.080 0.974 171 155 129
-17.527 3.073 0.874 164 155 126
-17.524 3.069 1.097 166 148 124
-17.530 3.066 1.043 162 146 120
-17.525 3.073 0.951 168 152 126
-17.513 3.081 0.951 171 157 131
-17.507 3.077 1.233 160 148 122
-17.543 3.046 1.414 126 118 99
-17.539 3.057 1.154 148 144 119
-17.513 3.090 0.654 171 165 141
-17.517 3.086 0.694 168 162 138
-17.531 3.070 0.877 164 155 126
-17.534 3.066 0.938 161 149 125
-17.549 3.039 1.529 104 99 79
-17.513 3.083 0.893 172 160 134
-17.522 3.075 0.936 168 153 130
-17.550 3.039 1.506 106 101 81
-17.524 3.074 0.900 166 155 127
-17.509 3.080 1.100 169 153 127
-17.524 3.070 1.059 165 148 120
-17.511 3.083 0.936 175 160 137
-17.512 3.077 1.120 167 151 125
-17.521 3.068 1.204 162 148 121
-17.518 3.087 0.614 172 164 141
-17.508 3.085 0.935 176 161 140
-17.529 3.071 0.905 163 152 124
-17.546 3.046 1.366 124 118 96
-17.537 3.055 1.241 155 149 125
-17.525 3.064 1.238 160 146 120
-17.513 3.079 1.027 168 154 128
-17.523 3.069 1.112 165 148 120
-17.528 3.075 0.811 165 154 126
-17.531 3.064 1.100 163 147 124
-17.516 3.071 1.218 161 147 120
-17.545 3.051 1.217 127 123 98
-17.513 3.092 0.567 175 169 147
-17.519 3.089 0.538 174 168 142
-17.537 3.051 1.396 145 137 116
-17.536 3.063 0.988 159 147 123
-17.526 3.060 1.361 159 149 122
-17.519 3.072 1.134 167 150 122
-17.511 3.078 1.094 169 153 127
-17.511 3.073 1.265 157 146 118
-17.521 3.074 0.985 162 146 120
-17.546 3.046 1.347 125 119 97
-17.509 3.078 1.162 167 152 123
-17.527 3.077 0.751 162 154 131
-17.537 3.056 1.207 154 144 117
-17.541 3.046 1.470 129 123 101
-17.518 3.089 0.564 175 168 142
-17.508 3.082 1.068 169 153 130
-17.518 3.074 1.071 166 149 123
-17.525 3.073 0.913 167 153 127
-17.539 3.055 1.208 149 142 116
-17.543 3.050 1.262 133 128 106
-17.534 3.059 1.196 160 150 123
-17.523 3.081 0.717 164 158 134
-17.546 3.049 1.245 128 128 104
-17.522 3.080 0.769 175 164 136
-17.509 3.076 1.224 158 146 120
-17.540 3.052 1.283 140 135 115
-17.533 3.064 1.052 162 146 120
-17.526 3.074 0.881 165 156 127
-17.530 3.066 1.060 165 148 120
-17.527 3.065 1.181 163 149 122
-17.548 3.046 1.290 109 108 87
-17.513 3.075 1.166 167 152 123
-17.511 3.087 0.775 171 169 148
-17.518 3.072 1.127 168 151 123
-17.522 3.077 0.871 167 158 129
-17.539 3.051 1.341 142 136 114
-17.532 3.067 0.966 161 147 120
-17.512 3.085 0.849 166 159 133
-17.518 3.084 0.720 169 163 139
-17.529 3.066 1.079 164 146 122
-17.513 3.075 1.168 167 152 123
-17.533 3.068 0.916 161 151 126
-17.536 3.060 1.098 160 148 124
-17.524 3.080 0.710 162 156 132
-17.536 3.054 1.325 151 143 120
-17.534 3.052 1.425 146 138 117
-17.515 3.091 0.584 172 166 144
-17.551 3.041 1.400 108 101 83
-17.539 3.049 1.421 141 133 112
-17.514 3.081 0.933 173 158 135
-17.527 3.062 1.269 161 150 128
-17.530 3.068 0.999 161 146 123
-17.533 3.066 0.963 162 151 123
-17.551 3.040 1.422 108 101 85
-17.518 3.086 0.659 167 161 137
-17.521 3.083 0.677 164 158 132
-17.505 3.081 1.152 169 154 123
-17.510 3.082 1.017 172 158 132
-17.527 3.066 1.141 168 151 125
-17.552 3.041 1.379 110 102 83
-17.524 3.067 1.162 161 147 118
-17.516 3.084 0.793 170 158 134
-17.551 3.042 1.371 108 100 79
-17.512 3.082 0.942 170 155 132
-17.549 3.041 1.452 106 104 83
-17.527 3.065 1.148 168 151 125
-17.533 3.056 1.334 157 146 124
-17.517 3.088 0.601 171 163 142
-17.538 3.053 1.309 148 140 117
-17.532 3.054 1.419 152 144 121
-17.544 3.043 1.490 106 101 81
-17.527 3.061 1.270 161 150 128
-17.542 3.045 1.472 120 115 93
-17.544 3.048 1.322 134 129 107
-17.531 3.057 1.322 156 145 123
-17.518 3.077 0.953 169 153 127
-17.532 3.067 0.981 162 148 122
-17.516 3.072 1.207 163 149 122
-17.517 3.082 0.808 174 160 134
-17.533 3.062 1.126 164 148 122
-17.523 3.072 1.005 165 149 126
-17.512 3.088 0.746 171 165 141
-17.525 3.060 1.370 157 147 122
-17.516 3.088 0.633 170 162 139
-17.540 3.057 1.104 157 147 122
-17.521 3.071 1.097 166 148 124
-17.531 3.056 1.387 153 145 126
-17.528 3.067 1.051 164 147 119
-17.511 3.090 0.698 170 164 140
-17.519 3.069 1.230 161 147 121
-17.513 3.074 1.201 161 150 122
-17.522 3.068 1.191 162 148 121
-17.523 3.068 1.142 167 150 122
-17.513 3.092 0.565 177 171 149
-17.549 3.042 1.414 107 98 81
-17.513 3.088 0.695 170 164 140
-17.513 3.091 0.614 170 162 141
-17.521 3.068 1.204 162 148 121
-17.529 3.067 1.046 163 146 120
-17.520 3.082 0.752 169 161 138
-17.532 3.063 1.103 164 148 125
-17.508 3.085 0.915 178 164 138
-17.513 3.089 0.663 168 162 138
-17.548 3.042 1.462 109 107 84
-17.510 3.075 1.226 158 146 120
-17.523 3.069 1.131 167 150 122
-17.553 3.039 1.401 108 101 83
-17.547 3.045 1.365 124 118 96
-17.535 3.056 1.261 154 146 123
-17.511 3.081 0.987 174 160 134
-17.535 3.065 0.970 159 148 120
-17.527 3.065 1.179 162 151 123
-17.512 3.092 0.590 172 165 146
-17.531 3.069 0.916 164 152 126
-17.533 3.069 0.897 163 151 125
-17.512 3.083 0.921 173 159 133
-17.531 3.054 1.420 152 144 121
-17.550 3.043 1.365 113 107 85
-17.546 3.044 1.418 114 106 87
-17.534 3.065 0.984 158 146 122
-17.544 3.042 1.522 110 105 85
-17.538 3.060 1.071 156 144 120
-17.509 3.081 1.049 167 155 131
-17.548 3.042 1.427 113 105 86
-17.533 3.053 1.436 143 135 114
-17.540 3.047 1.459 121 116 94
-17.534 3.057 1.259 156 148 125
-17.543 3.044 1.476 115 109 87
-17.513 3.084 0.838 171 164 138
-17.516 3.079 0.973 168 152 126
-17.533 3.056 1.332 152 144 121
-17.510 3.076 1.175 166 151 122
-17.522 3.071 1.068 165 148 120
-17.520 3.080 0.827 170 161 132
-17.526 3.067 1.126 166 149 123
-17.521 3.082 0.719 165 159 135
-17.528 3.061 1.290 157 146 124
-17.533 3.061 1.162 160 150 123
-17.549 3.040 1.474 108 103 81
-17.514 3.082 0.905 173 159 133
-17.531 3.072 0.835 164 153 131
-17.524 3.062 1.362 159 149 122
-17.524 3.063 1.306 158 146 122
-17.531 3.057 1.341 157 146 124
-17.526 3.073 0.902 166 155 127
-17.534 3.055 1.323 151 143 120
-17.509 3.076 1.213 161 150 122
-17.516 3.087 0.671 169 163 139
-17.520 3.077 0.925 169 155 129
-17.511 3.091 0.646 170 164 140
-17.529 3.067 1.027 163 147 122
-17.517 3.085 0.724 170 166 141
-17.525 3.067 1.156 161 147 118
-17.552 3.040 1.402 108 101 83
-17.518 3.068 1.266 158 146 120
-17.511 3.078 1.116 167 151 125
-17.535 3.056 1.290 150 144 122
-17.519 3.078 0.912 172 158 132
-17.521 3.076 0.942 168 152 127
-17.516 3.085 0.724 170 166 141
-17.538 3.061 1.039 161 147 121
-17.510 3.082 1.010 171 157 131
-17.523 3.073 0.984 163 147 121
-17.517 3.087 0.629 169 161 138
-17.525 3.061 1.343 160 148 124
-17.535 3.052 1.431 144 136 115
-17.516 3.080 0.929 171 156 133
-17.545 3.044 1.444 107 105 84
-17.540 3.058 1.109 157 147 122
-17.509 3.080 1.077 169 153 128
-17.533 3.068 0.909 164 152 126
-17.529 3.065 1.131 165 148 122
-17.519 3.067 1.296 160 145 122
-17.531 3.061 1.186 159 148 120
-17.512 3.074 1.214 161 150 122
-17.552 3.039 1.434 109 102 86
-17.520 3.072 1.085 167 150 124
-17.508 3.081 1.087 171 155 129
-17.510 3.082 1.005 170 156 130
-17.505 3.081 1.138 168 154 127
-17.521 3.069 1.176 164 150 121
-17.520 3.068 1.232 161 147 121
-17.517 3.090 0.539 180 176 151
-17.548 3.044 1.363 113 107 85
-17.517 3.077 0.997 169 153 128
-17.533 3.066 0.976 164 150 123
-17.522 3.076 0.900 167 156 128
-17.529 3.058 1.370 157 146 124
-17.546 3.042 1.493 110 105 85
-17.514 3.089 0.655 172 166 142
-17.527 3.064 1.192 160 149 121
-17.541 3.053 1.245 151 147 122
-17.519 3.075 1.005 168 152 129
-17.546 3.046 1.363 124 118 96
-17.532 3.059 1.243 160 150 125
-17.537 3.056 1.206 154 144 117
-17.519 3.071 1.140 167 150 122
-17.532 3.060 1.187 159 148 120
-17.513 3.087 0.733 172 166 142
-17.531 3.063 1.134 166 150 124
-17.547 3.049 1.228 129 127 104
-17.516 3.092 0.486 173 166 148
-17.523 3.064 1.269 160 148 124
-17.515 3.081 0.897 170 158 132
-17.538 3.061 1.030 161 147 121
-17.527 3.076 0.781 165 155 128
-17.527 3.061 1.294 158 147 125
-17.551 3.039 1.467 104 102 81
-17.511 3.083 0.922 174 160 134
-17.519 3.072 1.136 167 150 122
-17.514 3.090 0.608 171 163 142
-17.531 3.062 1.182 159 148 120
-17.536 3.060 1.133 162 148 122
-17.523 3.066 1.218 162 148 121
-17.535 3.063 1.044 162 146 120
-17.533 3.067 0.949 162 148 122
-17.534 3.052 1.441 139 133 111
-17.524 3.071 1.024 163 149 123
-17.532 3.059 1.246 161 151 126
-17.529 3.072 0.872 165 156 127
-17.511 3.088 0.768 175 167 144
-17.541 3.055 1.154 148 144 119
-17.537 3.057 1.180 154 147 121
-17.539 3.055 1.206 149 142 116
-17.533 3.054 1.393 150 142 121
-17.523 3.065 1.252 160 148 122
-17.510 3.083 0.955 173 159 133
-17.522 3.070 1.134 167 150 122
-17.523 3.068 1.152 162 148 119
-17.518 3.083 0.765 169 161 138
-17.525 3.075 0.869 166 157 128
-17.530 3.073 0.813 163 153 126
-17.515 3.089 0.610 172 164 141
-17.546 3.046 1.343 124 119 97
-17.540 3.055 1.176 153 147 121
-17.527 3.073 0.876 164 155 126
-17.532 3.057 1.311 156 145 123
-17.546 3.047 1.323 123 118 96
-17.512 3.075 1.183 163 149 122
-17.513 3.080 0.981 173 157 131
-17.523 3.074 0.946 169 153 128
-17.523 3.066 1.223 162 148 121
-17.520 3.085 0.634 168 160 137
-17.537 3.058 1.145 163 151 125
-17.512 3.078 1.070 167 149 125
-17.515 3.076 1.060 166 149 123
-17.526 3.067 1.108 164 147 121
-17.514 3.088 0.675 171 165 141
-17.527 3.060 1.339 157 146 124
-17.543 3.049 1.310 135 130 108
-17.524 3.080 0.722 163 157 133
-17.519 3.073 1.079 166 149 123
-17.512 3.084 0.852 166 159 133
-17.529 3.074 0.803 169 158 130
-17.536 3.054 1.295 148 143 123
-17.540 3.054 1.210 149 142 116
-17.509 3.088 0.821 171 165 141
-17.512 3.085 0.837 171 164 138
-17.525 3.072 0.964 167 152 123
-17.513 3.077 1.095 168 151 125
-17.533 3.060 1.186 158 148 121
-17.509 3.077 1.170 166 151 122
-17.509 3.086 0.880 173 161 135
-17.516 3.085 0.736 170 164 140
-17.533 3.062 1.129 163 149 123
-17.519 3.068 1.243 159 145 119
-17.533 3.053 1.422 147 139 118
-17.514 3.076 1.095 168 151 125
-17.547 3.045 1.383 121 114 95
-17.515 3.089 0.627 169 161 138
-17.537 3.058 1.165 155 149 123
-17.528 3.062 1.235 160 148 122
-17.544 3.051 1.227 143 139 114
-17.539 3.051 1.337 142 136 114
-17.521 3.076 0.933 168 153 130
-17.541 3.048 1.401 137 129 110
-17.521 3.081 0.750 166 158 135
-17.533 3.060 1.180 157 147 120
-17.529 3.070 0.941 163 149 123
-17.514 3.088 0.693 170 164 140
-17.547 3.041 1.484 106 101 79
-17.535 3.051 2.077 137 120 100
-17.536 3.050 2.067 143 125 105
-17.530 3.057 2.037 157 141 115
-17.519 3.065 2.134 149 131 95
-17.544 3.044 2.039 117 104 87
-17.546 3.043 1.982 116 104 88
-17.538 3.048 2.060 134 119 98
-17.537 3.049 2.066 132 115 97
-17.536 3.054 1.943 142 129 112
-17.536 3.052 2.002 132 119 103
-17.535 3.056 1.934 154 141 122
-17.516 3.073 1.962 168 148 121
-17.511 3.082 1.838 164 148 122
-17.530 3.058 2.002 166 150 127
-17.546 3.040 2.098 108 97 77
-17.508 3.079 2.026 178 166 150
-17.530 3.056 2.064 158 140 116
-17.509 3.081 1.929 164 155 126
-17.507 3.076 2.127 177 161 135
-17.527 3.064 1.915 163 146 116
-17.512 3.080 1.847 163 147 121
-17.511 3.072 2.145 161 146 115
-17.539 3.049 2.023 134 119 100
-17.525 3.060 2.103 151 136 107
-17.508 3.081 1.967 168 156 130
-17.507 3.078 2.082 179 168 150
-17.527 3.065 1.899 164 149 120
-17.541 3.044 2.115 108 97 75
-17.510 3.083 1.826 163 147 121
-17.536 3.055 1.937 151 138 119
-17.527 3.058 2.115 147 133 107
-17.532 3.055 2.046 151 135 110
-17.523 3.066 1.977 164 147 119
-17.530 3.060 1.928 165 149 123
-17.531 3.054 2.117 133 121 99
-17.531 3.055 2.063 152 136 111
-17.529 3.062 1.910 160 146 119
-17.518 3.068 2.062 159 145 116
-17.508 3.081 1.937 163 153 128
-17.520 3.066 2.040 163 148 119
-17.514 3.079 1.815 165 150 119
-17.508 3.083 1.887 166 155 127
-17.514 3.076 1.928 163 148 117
-17.526 3.059 2.088 154 139 110
-17.531 3.058 1.960 160 143 123
-17.510 3.083 1.829 164 148 122
-17.542 3.046 2.046 123 110 91
-17.531 3.056 2.044 152 136 113
-17.530 3.060 1.940 162 146 123
-17.527 3.059 2.050 156 140 114
-17.517 3.072 1.969 167 150 122
-17.538 3.050 2.031 133 118 99
-17.516 3.074 1.902 167 152 121
-17.519 3.065 2.103 157 143 114
-17.523 3.069 1.875 162 148 119
-17.512 3.071 2.147 150 135 104
-17.508 3.085 1.822 178 161 133
-17.527 3.060 2.034 156 140 115
-17.509 3.082 1.869 167 153 124
-17.541 3.045 2.103 112 99 80
-17.547 3.042 1.978 115 103 87
-17.521 3.067 1.992 166 149 121
-17.508 3.082 1.899 164 154 127
-17.526 3.064 1.936 165 148 122
-17.544 3.044 2.033 117 104 87
-17.522 3.067 1.966 169 148 121
-17.526 3.063 1.974 164 147 119
-17.535 3.052 2.046 144 127 107
-17.531 3.057 1.995 159 142 122
-17.517 3.074 1.908 166 149 119
-17.510 3.083 1.826 163 147 121
-17.537 3.047 2.122 111 99 77
-17.512 3.072 2.097 177 166 146
-17.516 3.067 2.125 154 139 108
-17.519 3.073 1.870 166 151 118
-17.542 3.048 1.958 131 118 101
-17.547 3.042 1.991 114 102 86
-17.545 3.045 1.971 125 112 96
-17.517 3.074 1.894 167 152 121
-17.535 3.055 1.951 150 134 118
-17.532 3.056 2.024 152 136 113
-17.512 3.082 1.788 162 147 118
-17.533 3.053 2.070 151 133 111
-17.510 3.078 1.970 169 154 131
-17.529 3.060 1.974 163 145 121
-17.541 3.049 1.955 131 118 101
-17.515 3.069 2.119 158 142 117
-17.529 3.055 2.125 137 121 95
-17.509 3.083 1.861 166 155 127
-17.513 3.079 1.883 164 149 120
-17.507 3.077 2.105 174 165 148
-17.540 3.050 1.965 134 121 102
-17.518 3.073 1.884 165 150 119
-17.508 3.080 1.970 168 153 134
-17.522 3.063 2.100 156 142 113
-17.528 3.056 2.134 135 116 86
-17.520 3.070 1.945 167 147 122
-17.514 3.076 1.932 164 149 120
-17.515 3.070 2.095 159 149 124
-17.536 3.055 1.916 153 143 118
-17.529 3.061 1.941 161 143 121
-17.516 3.075 1.921 165 149 116
-17.511 3.074 2.088 177 166 146
-17.520 3.070 1.943 167 147 120
-17.526 3.059 2.107 149 134 105
-17.522 3.070 1.861 167 152 121
-17.522 3.065 2.016 163 147 121
-17.527 3.063 1.942 161 143 121
-17.514 3.078 1.855 163 148 117
-17.522 3.064 2.060 158 143 112
-17.537 3.051 2.026 134 119 100
-17.514 3.076 1.936 166 150 124
-17.548 3.039 2.069 117 101 85
-17.539 3.051 1.951 140 127 110
-17.518 3.065 2.134 150 134 98
-17.514 3.077 1.893 166 151 122
-17.519 3.066 2.088 158 144 115
-17.525 3.062 2.022 160 144 118
-17.537 3.047 2.121 111 99 77
-17.550 3.039 2.004 112 103 88
-17.527 3.057 2.103 144 128 102
-17.508 3.081 1.953 167 155 131
-17.516 3.072 1.981 164 148 122
-17.523 3.069 1.857 166 151 120
-17.521 3.066 2.025 162 146 120
-17.525 3.064 1.969 166 146 119
-17.508 3.084 1.841 172 158 132
-17.518 3.065 2.149 135 115 80
-17.518 3.068 2.071 162 148 121
-17.510 3.084 1.814 162 147 118
-17.523 3.066 1.947 166 146 121
-17.507 3.083 1.909 163 153 128
-17.544 3.044 2.031 117 104 87
-17.540 3.046 2.059 121 108 89
-17.526 3.058 2.122 146 130 104
-17.507 3.085 1.860 166 155 127
-17.527 3.058 2.092 153 138 109
-17.535 3.056 1.913 153 143 118
-17.520 3.064 2.123 152 137 108
-17.519 3.065 2.125 152 137 106
-17.528 3.062 1.947 162 144 122
-17.531 3.059 1.937 158 143 122
-17.513 3.077 1.933 166 151 122
-17.517 3.072 1.943 167 147 122
-17.522 3.061 2.139 144 126 90
-17.530 3.061 1.911 160 146 119
-17.529 3.061 1.941 162 146 123
-17.516 3.071 2.021 164 150 124
-17.515 3.070 2.091 159 147 123
-17.547 3.042 2.002 110 101 86
-17.510 3.075 2.089 177 166 146
-17.524 3.065 1.970 165 148 118
-17.514 3.072 2.051 160 148 122
-17.536 3.053 1.962 143 130 111
-17.529 3.057 2.053 157 141 115
-17.542 3.048 1.976 135 119 104
-17.517 3.071 1.981 164 148 122
-17.513 3.092 0.416 116 119 108
-17.512 3.092 0.444 111 116 110
-17.512 3.092 0.419 115 118 107
-17.553 1.815 0.667 190 171 131
-17.553 1.815 0.708 185 172 130
-17.554 1.813 0.779 187 170 126
-17.553 1.815 0.699 188 173 130
-17.551 1.818 0.527 191 173 137
-17.541 1.880 1.875 169 147 110
-17.536 1.886 1.973 167 144 110
-17.541 1.881 1.878 169 147 110
-17.541 1.874 1.883 168 146 109
-17.538 1.847 1.944 164 144 107
-17.542 1.833 1.873 164 146 108
-17.540 1.884 1.884 169 146 112
-17.539 1.903 1.909 167 147 112
-17.539 1.920 1.901 169 149 114
-17.543 1.846 1.845 164 146 110
-17.538 1.901 1.921 167 147 112
-17.544 1.830 1.835 160 147 105
-17.538 1.882 1.937 168 145 111
-17.538 1.889 1.923 166 146 111
-17.540 1.857 1.905 168 144 110
-17.539 1.883 1.920 166 146 111
-17.535 1.850 2.000 160 142 104
-17.540 1.892 1.889 166 146 111
-17.537 1.879 1.956 167 144 112
-17.539 1.837 1.924 165 142 108
-17.539 1.879 1.919 165 145 110
-17.534 1.878 1.998 165 145 108
-17.534 1.859 2.021 159 141 101
-17.535 1.887 1.980 167 144 110
-17.536 1.896 1.955 169 146 112
-17.534 1.854 2.014 160 142 104
-17.540 1.841 1.904 167 144 110
-17.538 1.905 1.927 168 148 113
-17.538 1.891 1.929 167 147 112
-17.539 1.858 1.918 168 145 111
-17.535 1.893 1.979 167 144 110
-17.540 1.859 1.891 166 144 105
-17.537 1.840 1.962 163 143 106
-17.538 1.854 1.928 166 143 109
-17.538 1.917 1.912 168 148 113
-17.539 1.855 1.911 168 144 110
-17.536 1.853 1.984 164 144 109
-17.539 1.843 1.926 165 142 108
-17.538 1.872 1.935 167 144 110
-17.543 1.839 1.846 163 145 109
-17.539 1.882 1.914 166 146 111
-17.535 1.858 2.002 161 143 105
-17.536 1.857 1.967 163 143 108
-17.541 1.891 1.879 168 145 111
-17.543 1.854 1.851 164 146 110
-17.536 1.863 1.969 163 143 108
-17.539 1.836 1.914 165 142 108
-17.540 1.845 1.895 167 144 110
-17.540 1.879 1.898 169 145 107
-17.537 1.870 1.953 167 144 112
-17.542 1.832 1.861 162 144 108
-17.537 1.845 1.959 163 143 108
-17.542 1.844 1.864 164 144 107
-17.534 1.857 2.007 160 142 104
-17.540 1.863 1.896 168 144 106
-17.542 1.863 1.860 165 145 108
-17.540 1.855 1.900 167 143 109
-17.541 1.857 1.886 167 145 106
-17.538 1.841 1.936 163 143 108
-17.535 1.890 1.987 168 146 109
-17.536 1.889 1.966 170 145 114
-17.540 1.913 1.893 168 148 113
-17.541 1.853 1.880 167 145 106
-17.533 1.861 2.038 161 142 102
-17.535 1.852 1.989 162 142 107
-17.533 1.858 2.022 159 141 101
-17.539 1.873 1.905 166 146 111
-17.544 1.830 1.838 163 145 109
-17.537 1.853 1.953 162 142 107
-17.539 1.927 1.907 171 148 114
-17.541 1.833 1.885 164 145 105
-17.535 1.850 2.001 160 142 104
-17.543 1.831 1.846 163 145 109
-17.537 1.900 1.954 169 146 112
-17.534 1.869 2.011 163 143 106
-17.541 1.835 1.893 165 145 110
-17.538 1.883 1.922 165 145 110
-17.534 1.850 2.010 160 142 104
-17.538 1.865 1.928 167 144 110
-17.543 1.835 1.844 163 145 109
-17.542 1.842 1.874 164 144 107
-17.539 1.905 1.902 168 148 113
-17.538 1.880 1.935 168 145 111
-17.538 1.886 1.926 166 146 111
-17.537 1.909 1.942 170 147 113
-17.535 1.851 2.001 160 142 104
-17.536 1.857 1.968 163 143 108
-17.540 1.879 1.891 170 146 108
-17.540 1.859 1.897 168 144 110
-17.538 1.874 1.935 167 144 110
-17.538 1.912 1.926 168 148 113
-17.542 1.866 1.867 165 145 108
-17.541 1.871 1.875 167 145 108
-17.536 1.842 1.984 162 142 107
-17.538 1.889 1.923 166 146 111
-17.534 1.880 1.998 165 145 108
-17.536 1.902 1.964 170 145 114
-17.535 1.869 1.990 164 144 107
-17.537 1.893 1.938 170 147 113
-17.538 1.924 1.923 167 147 112
-17.536 1.856 1.966 164 144 109
-17.537 1.918 1.932 167 147 112
-17.540 1.897 1.891 167 147 112
-17.540 1.900 1.886 167 147 112
-17.538 1.845 1.932 163 143 108
-17.539 1.921 1.902 169 149 114
-17.538 1.908 1.923 168 148 113
-17.538 1.848 1.934 163 143 108
-17.539 1.854 1.927 166 143 109
-17.538 1.879 1.936 168 145 111
-17.541 1.863 1.883 167 145 106
-17.541 1.874 1.867 167 145 108
-17.534 1.855 2.007 160 142 104
-17.536 1.889 1.968 169 144 113
-17.534 1.872 2.013 163 143 106
-17.534 1.852 2.011 160 142 104
-17.542 1.871 1.865 165 145 108
-17.540 1.862 1.897 168 144 110
-17.535 1.888 1.978 167 144 110
-17.535 1.851 2.002 160 142 104
-17.539 1.845 1.925 165 142 108
-17.538 1.911 1.919 168 148 113
-17.536 1.892 1.973 169 144 113
-17.536 1.892 1.964 170 145 114
-17.538 1.920 1.924 168 148 113
-17.537 2.044 1.968 165 141 113
-17.534 2.040 2.036 183 157 122
-17.538 2.017 1.933 174 151 110
-17.537 2.041 1.948 157 134 103
-17.536 2.035 1.988 183 157 120
-17.538 2.059 1.942 96 80 65
-17.535 2.021 2.000 199 166 131
-17.538 2.031 1.933 165 141 103
-17.537 1.971 1.944 175 150 119
-17.534 2.033 2.032 187 161 126
-17.536 1.984 1.962 176 149 119
-17.538 1.972 1.932 174 150 116
-17.538 1.997 1.939 176 150 115
-17.535 2.001 1.989 190 161 129
-17.537 2.015 1.944 178 153 112
-17.538 1.994 1.936 176 150 117
-17.539 1.992 1.914 173 151 112
-17.537 1.980 1.960 176 149 119
-17.536 2.052 1.994 149 125 91
-17.539 2.050 1.923 113 96 70
-17.537 2.064 1.950 101 84 74
-17.538 2.033 1.921 164 138 105
-17.538 2.056 1.938 105 88 70
-17.538 1.954 1.931 171 148 114
-17.536 1.991 1.980 185 156 122
-17.533 2.047 2.045 155 136 103
-17.536 1.994 1.981 186 157 123
-17.538 1.956 1.910 174 150 116
-17.538 2.060 1.932 95 79 63
-17.536 2.050 1.975 141 120 91
-17.534 2.044 2.020 173 151 114
-17.535 2.021 2.001 199 166 131
-17.534 2.056 2.030 118 104 77
-17.538 1.979 1.931 174 150 116
-17.538 2.011 1.936 176 153 112
-17.534 2.058 2.043 118 106 82
-17.538 1.979 1.928 171 149 112
-17.536 1.990 1.974 183 154 122
-17.537 2.026 1.962 183 158 117
-17.536 1.976 1.964 176 149 120
-17.536 2.029 1.975 187 159 120
-17.535 2.006 1.998 191 165 132
-17.537 2.012 1.964 185 161 117
-17.537 2.027 1.956 176 151 111
-17.538 1.966 1.917 170 150 115
-17.535 2.046 2.017 155 136 106
-17.538 1.987 1.936 174 150 116
-17.537 2.049 1.967 146 125 98
-17.539 1.988 1.910 172 150 111
-17.537 1.970 1.941 174 150 116
-17.538 1.992 1.937 174 150 116
-17.535 2.041 2.013 182 158 122
-17.539 2.001 1.912 174 150 112
-17.537 1.997 1.952 177 151 116
-17.535 2.033 2.000 202 169 134
-17.534 2.064 2.026 117 106 86
-17.537 2.058 1.963 108 90 68
-17.538 1.951 1.931 171 148 114
-17.537 1.975 1.938 174 150 116
-17.537 2.023 1.955 178 155 113
-17.535 2.000 1.995 187 158 126
-17.538 1.954 1.932 172 148 114
-17.535 2.017 2.011 194 164 128
-17.538 2.044 1.943 151 128 97
-17.538 1.978 1.931 174 150 116
-17.537 2.053 1.959 121 101 77
-17.533 2.048 2.045 140 124 91
-17.533 2.059 2.051 108 98 73
-17.538 1.939 1.914 173 149 115
-17.536 2.002 1.966 185 157 118
-17.538 2.035 1.943 162 138 102
-17.537 2.038 1.947 163 138 107
-17.538 2.058 1.947 98 80 66
-17.536 2.017 1.981 190 164 129
-17.538 2.064 1.934 94 78 63
-17.537 1.977 1.939 174 149 118
-17.538 2.063 1.927 95 79 63
-17.535 2.013 2.010 192 162 128
-17.535 2.047 2.004 165 139 104
-17.535 2.028 2.009 196 166 130
-17.537 1.973 1.947 175 150 119
-17.537 2.023 1.960 181 156 115
-17.536 2.060 1.994 117 101 76
-17.539 2.044 1.911 140 119 90
-17.539 2.051 1.921 113 96 70
-17.536 2.052 1.978 133 109 81
-17.537 1.982 1.948 175 150 119
-17.536 1.994 1.972 184 155 121
-17.535 2.048 2.011 155 138 110
-17.539 2.029 1.915 166 137 103
-17.533 2.042 2.049 172 153 120
-17.533 2.065 2.063 121 114 96
-17.532 2.064 2.073 111 106 86
-17.538 2.055 1.930 102 86 63
-17.533 2.043 2.052 165 146 114
-17.535 2.015 2.003 196 166 132
-17.532 2.063 2.077 116 110 86
-17.534 2.019 2.018 192 164 127
-17.536 2.016 1.972 188 163 122
-17.538 1.999 1.920 174 150 112
-17.537 1.975 1.936 174 150 116
-17.535 2.006 1.998 191 165 132
-17.536 2.020 1.981 192 163 129
-17.533 2.039 2.048 176 157 124
-17.539 2.047 1.911 140 119 90
-17.536 2.064 1.993 120 108 86
-17.537 1.986 1.947 176 149 119
-17.529 1.997 2.130 149 120 78
-17.529 2.002 2.141 129 105 69
-17.529 1.937 2.134 139 114 73
-17.529 1.939 2.136 133 108 68
-17.528 1.900 2.135 134 109 69
-17.529 2.024 2.135 137 115 76
-17.528 2.035 2.151 110 94 69
-17.527 1.878 2.152 113 92 61
-17.528 1.929 2.144 128 105 64
-17.529 2.039 2.134 136 117 87
-17.528 1.944 2.145 124 102 65
-17.528 1.938 2.148 124 102 65
-17.529 2.028 2.137 134 114 77
-17.528 1.861 2.133 124 104 71
-17.530 2.028 2.132 143 121 84
-17.529 2.019 2.137 134 112 73
-17.529 1.888 2.133 134 111 70
-17.528 2.000 2.149 123 99 65
-17.529 1.903 2.130 140 112 72
-17.528 1.893 2.143 122 100 63
-17.529 1.893 2.130 136 111 70
-17.529 2.039 2.134 136 117 87
-17.529 1.971 2.140 133 109 71
-17.529 1.940 2.133 137 112 71
-17.528 1.855 2.143 116 93 61
-17.529 2.055 2.140 85 73 59
-17.529 2.053 2.137 102 89 70
-17.527 1.869 2.149 118 95 64
-17.528 1.863 2.139 120 100 63
-17.529 2.028 2.143 123 103 76
-17.529 1.902 2.135 134 109 69
-17.529 2.056 2.140 78 69 54
-17.529 2.050 2.146 96 84 68
-17.528 1.912 2.145 125 103 64
-17.528 1.907 2.145 126 102 64
-17.529 1.960 2.129 147 118 74
-17.527 1.877 2.147 113 95 59
-17.530 2.006 2.128 151 123 83
-17.528 1.981 2.150 119 99 66
-17.528 1.972 2.143 129 107 70
-17.528 2.031 2.149 103 87 61
-17.528 1.975 2.143 129 107 70
-17.528 1.881 2.143 118 98 61
-17.529 2.012 2.135 141 112 72
-17.528 1.938 2.151 121 101 68
-17.529 2.017 2.141 132 109 78
-17.528 1.876 2.141 119 99 62
-17.529 2.040 2.142 118 102 77
-17.529 2.018 2.134 140 118 77
-17.528 1.898 2.144 125 103 66
-17.529 1.925 2.125 152 123 81
-17.535 1.921 1.990 168 145 111
-17.536 1.983 1.978 182 153 123
-17.535 1.947 1.992 172 150 111
-17.530 2.049 2.122 125 108 78
-17.537 1.925 1.933 170 147 113
-17.533 1.952 2.044 172 149 115
-17.531 2.033 2.102 170 146 110
-17.532 2.036 2.084 175 151 117
-17.531 1.873 2.083 159 137 98
-17.534 1.883 2.008 164 144 107
-17.531 1.993 2.095 171 147 113
-17.533 1.912 2.025 168 145 111
-17.529 1.928 2.123 154 125 83
-17.534 1.987 2.013 179 152 122
-17.533 1.971 2.047 173 150 118
-17.532 2.005 2.074 173 150 116
-17.530 1.936 2.118 160 131 89
-17.530 2.029 2.114 167 142 101
-17.530 2.020 2.126 157 134 92
-17.530 1.902 2.108 158 133 92
-17.531 1.960 2.089 169 144 113
-17.534 2.021 2.027 188 162 125
-17.530 1.904 2.117 152 127 86
-17.535 1.990 2.007 181 154 125
-17.530 1.939 2.105 167 139 100
-17.534 1.944 2.027 171 148 114
-17.535 1.912 1.979 169 146 112
-17.530 1.937 2.111 163 135 95
-17.532 1.950 2.062 170 147 113
-17.533 1.991 2.055 176 152 118
-17.533 1.998 2.044 181 155 120
-17.533 2.008 2.060 180 154 117
-17.535 1.907 1.978 169 146 112
-17.534 1.911 2.017 169 146 112
-17.537 1.957 1.940 173 149 115
-17.532 1.865 2.052 164 142 105
-17.530 1.986 2.115 166 138 98
-17.535 1.899 1.984 168 145 111
-17.530 1.971 2.118 163 136 93
-17.531 1.938 2.092 167 143 109
-17.533 1.888 2.035 163 143 108
-17.534 1.936 2.022 170 147 113
-17.530 1.889 2.092 160 137 103
-17.536 1.941 1.964 173 146 116
-17.535 1.948 1.987 172 150 113
-17.532 2.040 2.073 173 150 116
-17.534 1.956 2.005 174 150 114
-17.530 1.863 2.088 156 134 95
-17.532 2.022 2.065 180 156 120
-17.535 2.008 2.008 193 162 131
-17.534 1.928 2.003 172 148 114
-17.536 1.911 1.966 170 146 112
-17.532 1.876 2.052 164 142 105
-17.530 1.878 2.105 154 130 92
-17.530 2.065 2.125 104 92 68
-17.533 1.979 2.047 173 150 118
-17.530 1.955 2.118 161 132 90
-17.532 1.907 2.065 164 141 109
-17.535 1.966 2.000 175 151 115
-17.531 1.875 2.088 158 136 97
-17.534 1.972 2.026 175 151 117
-17.533 1.869 2.036 162 142 105
-17.532 1.957 2.065 170 147 113
-17.530 1.965 2.124 161 129 88
-17.534 1.889 2.004 165 145 108
-17.532 1.966 2.063 171 148 116
-17.535 1.992 2.007 183 156 127
-17.531 1.949 2.080 169 146 114
-17.530 1.900 2.095 162 138 104
-17.529 1.852 2.121 135 117 79
-17.535 1.914 1.977 169 146 112
-17.530 1.962 2.112 167 138 98
-17.531 2.031 2.105 170 144 107
-17.534 1.969 2.017 174 150 116
-17.530 2.036 2.127 150 128 91
-17.533 1.952 2.046 171 148 114
-17.534 1.899 2.011 168 145 111
-17.530 1.863 2.095 155 133 94
-17.532 2.032 2.065 178 154 120
-17.531 1.974 2.095 170 143 113
-17.535 1.917 1.991 168 145 111
-17.530 1.850 2.096 153 129 83
-17.529 1.928 2.123 151 122 80
-17.533 1.976 2.048 173 150 118
-17.534 1.962 2.025 173 150 116
-17.530 1.920 2.106 161 136 95
-17.531 1.918 2.085 166 141 111
-17.535 1.984 1.988 182 153 121
-17.535 2.005 2.010 190 159 128
-17.534 1.998 2.027 182 156 123
-17.531 1.957 2.092 168 143 112
-17.529 1.916 2.122 153 126 83
-17.532 1.922 2.068 166 143 109
-17.534 1.952 2.026 172 149 115
-17.529 1.890 2.123 146 121 80
-17.530 2.019 2.112 166 140 103
-17.533 1.898 2.021 167 144 110
-17.533 1.895 2.040 165 142 108
-17.532 2.002 2.077 172 149 117
-17.531 1.929 2.095 168 142 107
-17.534 2.001 2.028 182 156 123
-17.533 1.903 2.032 167 144 110
-17.529 1.864 2.112 144 125 83
-17.536 1.949 1.975 173 148 118
-17.530 1.901 2.098 162 138 104
-17.533 1.897 2.043 166 143 109
-17.532 1.962 2.061 171 148 114
-17.529 1.873 2.128 138 115 74
-17.535 1.908 1.987 168 145 111
-17.534 1.909 2.003 169 145 111
-17.533 1.989 2.039 176 153 121
-17.530 2.032 2.126 153 129 91
-17.531 1.859 2.078 158 136 95
-17.530 1.962 2.110 169 139 101
-17.534 2.012 2.024 187 158 124
-17.533 1.918 2.026 168 145 111
-17.529 1.885 2.127 139 114 74
-17.533 1.988 2.044 174 151 119
-17.535 1.933 1.985 169 147 110
-17.535 1.950 1.996 172 150 111
-17.530 1.963 2.109 169 139 101
-17.532 2.053 2.086 117 104 72
-17.529 1.965 2.126 155 127 80
-17.535 1.920 1.998 169 146 112
-17.535 1.984 2.008 180 153 123
-17.530 2.014 2.111 168 142 105
-17.532 1.983 2.081 171 145 118
-17.531 1.861 2.066 160 138 99
-17.532 2.054 2.090 120 107 75
-17.533 2.027 2.045 182 160 119
-17.537 1.920 1.947 169 146 114
-17.531 1.904 2.084 162 139 108
-17.533 1.982 2.057 174 151 119
-17.534 1.888 2.000 167 145 108
-17.537 1.953 1.953 173 146 116
-17.536 1.914 1.951 169 146 112
-17.536 1.934 1.976 171 147 113
-17.531 2.034 2.103 170 146 110
-17.531 1.925 2.075 167 144 112
-17.530 1.888 2.108 156 132 94
-17.532 1.874 2.050 164 142 105
-17.531 1.913 2.071 166 143 111
-17.532 1.937 2.072 166 146 111
-17.533 2.004 2.057 180 154 117
-17.532 1.974 2.056 173 150 118
-17.535 1.893 1.994 168 146 109
-17.534 2.008 2.032 183 157 122
-17.534 1.956 2.017 174 150 116
-17.532 1.906 2.054 165 142 108
-17.530 1.969 2.111 168 138 100
-17.529 1.906 2.126 147 120 77
-17.532 1.927 2.067 167 144 110
-17.531 1.956 2.096 169 143 110
-17.534 1.958 2.028 173 150 116
-17.531 1.979 2.087 171 146 116
-17.533 1.907 2.033 167 144 110
-17.530 2.009 2.114 168 143 103
-17.533 1.949 2.032 172 149 115
-17.530 1.948 2.100 166 140 105
-17.530 1.926 2.106 165 137 98
-17.537 1.944 1.934 171 148 114
-17.535 1.901 1.991 169 147 110
-17.532 1.982 2.065 173 150 118
-17.535 1.961 1.988 175 149 114
-17.533 2.012 2.048 183 158 117
-17.533 2.031 2.045 182 160 119
-17.532 2.049 2.084 146 130 96
-17.533 1.957 2.030 173 150 116
-17.532 1.994 2.071 175 150 120
-17.535 1.958 1.993 174 150 112
-17.536 1.922 1.962 171 146 115
-17.533 1.929 2.027 169 146 112
-17.531 1.865 2.081 159 137 96
-17.530 1.986 2.119 164 136 96
-17.529 1.867 2.116 142 123 81
-17.534 2.013 2.027 186 160 123
-17.534 1.993 2.024 180 154 121
-17.533 2.036 2.055 178 158 123
-17.537 1.926 1.942 171 148 114
-17.531 2.031 2.098 172 148 114
-17.533 2.027 2.052 178 156 117
-17.532 1.877 2.041 162 142 107
-17.529 1.861 2.119 139 121 81
-17.530 2.046 2.121 137 118 85
-17.530 2.002 2.120 161 133 93
-17.531 2.063 2.107 116 104 80
-17.530 2.018 2.116 164 139 99
-17.531 1.901 2.072 164 141 109
-17.533 1.899 2.040 166 143 109
-17.531 1.934 2.090 166 142 108
-17.534 1.947 2.021 172 149 115
-17.531 2.023 2.104 170 145 105
-17.532 1.986 2.058 176 152 118
-17.532 2.060 2.078 119 112 86
-17.534 1.932 2.018 169 146 112
-17.530 1.886 2.095 158 136 99
-17.533 1.955 2.035 172 149 115
-17.530 1.902 2.094 161 137 103
-17.531 1.956 2.093 168 143 112
-17.530 1.871 2.098 154 131 87
-17.533 1.937 2.027 171 148 114
-17.532 1.999 2.068 176 151 120
-17.531 1.932 2.094 168 142 107
-17.536 1.931 1.968 172 145 115
-17.531 1.869 2.071 160 138 97
-17.529 1.937 2.127 149 122 79
-17.532 1.964 2.057 171 148 116
-17.531 1.948 2.086 168 143 112
-17.533 1.945 2.047 171 148 114
-17.535 1.971 1.989 176 150 117
-17.530 1.870 2.088 158 136 97
-17.529 1.870 2.128 137 114 73
-17.535 1.897 1.980 169 145 111
-17.529 1.863 2.120 139 121 81
-17.532 1.949 2.059 170 147 113
-17.530 1.956 2.115 166 137 97
-17.534 2.027 2.033 186 160 123
-17.536 1.927 1.967 172 146 113
-17.531 1.907 2.078 164 141 110
-17.533 1.930 2.048 170 147 113
-17.535 1.928 1.993 169 147 110
-17.535 1.947 1.984 172 149 115
-17.533 1.994 2.050 177 153 117
-17.533 1.966 2.032 173 150 116
-17.532 1.922 2.050 169 146 112
-17.533 2.036 2.054 178 158 123
-17.534 1.983 2.026 177 151 118
-17.536 1.940 1.962 173 146 116
-17.532 1.866 2.045 160 140 103
-17.531 1.966 2.085 170 145 115
-17.530 1.917 2.097 162 138 104
-17.532 1.973 2.063 172 149 117
-17.533 1.991 2.049 177 153 119
-17.531 1.973 2.098 169 143 110
-17.534 2.004 2.018 188 157 126
-17.529 1.855 2.118 140 121 79
-17.533 1.946 2.033 171 148 114
-17.531 2.018 2.099 173 149 113
-17.532 1.971 2.077 170 147 116
-17.533 1.960 2.039 172 149 115
-17.537 1.949 1.936 172 149 115
-17.534 1.999 2.029 182 156 123
-17.536 1.961 1.970 175 148 119
-17.531 1.992 2.090 173 148 117
-17.534 1.887 2.013 165 145 108
-17.536 1.960 1.963 175 148 118
-17.531 1.930 2.088 167 143 109
-17.530 1.859 2.105 151 128 84
-17.531 2.041 2.104 164 141 109
-17.532 1.869 2.054 164 142 105
-17.532 2.054 2.069 120 111 82
-17.536 1.953 1.959 174 147 117
-17.529 1.862 2.115 142 123 81
-17.535 1.914 1.988 168 145 111
-17.533 1.925 2.035 167 144 110
-17.534 1.940 2.015 172 145 116
-17.535 1.922 1.999 170 147 113
-17.532 1.997 2.073 174 151 119
-17.530 1.853 2.093 155 131 85
-17.532 1.875 2.043 162 142 107
-17.534 1.963 2.025 173 150 116
-17.536 1.956 1.971 175 148 118
-17.534 1.935 2.013 171 146 116
-17.533 1.887 2.040 163 143 108
-17.537 1.922 1.934 170 147 113
-17.537 1.946 1.956 172 147 116
-17.536 1.965 1.961 176 149 119
-17.537 1.926 1.950 171 146 115
-17.532 2.005 2.069 174 150 114
-17.538 1.930 1.925 168 148 113
-17.533 2.004 2.058 180 154 117
-17.530 1.901 2.105 158 134 98
-17.531 1.871 2.080 160 138 97
-17.529 1.872 2.124 140 117 76
-17.536 1.978 1.975 179 149 121
-17.532 1.973 2.068 172 149 117
-17.537 1.936 1.930 170 147 113
-17.530 2.035 2.114 165 142 101
-17.537 1.946 1.939 173 149 115
-17.537 1.929 1.950 171 146 115
-17.534 1.967 2.027 173 150 116
-17.533 1.929 2.046 169 146 112
-17.533 2.021 2.040 187 161 124
-17.530 2.018 2.121 161 137 93
-17.530 1.981 2.121 161 133 93
-17.530 1.910 2.101 161 137 99
-17.532 1.995 2.079 173 150 119
-17.532 1.957 2.053 171 148 114
-17.533 1.949 2.038 171 148 114
-17.533 1.899 2.026 167 144 110
-17.533 1.984 2.049 175 152 120
-17.532 1.924 2.058 168 145 111
-17.529 1.864 2.118 139 121 81
-17.533 2.006 2.038 186 158 119
-17.533 1.948 2.043 172 149 115
-17.562 1.966 0.495 201 184 141
-17.558 1.903 0.554 197 177 140
-17.553 1.858 0.489 192 174 138
-17.554 1.816 0.690 191 172 130
-17.557 1.876 0.601 197 173 137
-17.555 1.867 0.525 192 174 138
-17.554 1.854 0.550 193 175 139
-17.555 1.864 0.544 193 175 139
-17.556 1.889 0.486 194 176 138
-17.557 1.841 0.750 185 170 127
-17.561 1.948 0.510 201 181 144
-17.555 1.866 0.554 194 176 140
-17.562 1.962 0.504 201 183 143
-17.555 1.830 0.670 194 168 131
-17.558 1.908 0.523 197 177 142
-17.552 1.837 0.484 188 172 136
-17.558 1.881 0.639 196 172 134
-17.556 1.880 0.521 194 176 140
-17.560 1.902 0.632 187 167 134
-17.556 1.873 0.560 194 176 140
-17.558 1.842 0.756 187 170 126
-17.558 1.878 0.621 195 176 136
-17.553 1.823 0.580 191 172 139
-17.555 1.881 0.484 197 175 138
-17.555 1.822 0.684 186 172 135
-17.554 1.872 0.475 197 175 138
-17.561 1.956 0.480 201 182 139
-17.554 1.868 0.472 192 174 134
-17.560 1.934 0.513 200 180 143
-17.557 1.835 0.739 186 171 130
-17.555 1.841 0.608 194 172 133
-17.560 1.903 0.633 187 167 134
-17.555 1.866 0.554 194 176 140
-17.553 1.822 0.625 188 169 136
-17.557 1.883 0.562 197 177 140
-17.554 1.844 0.587 193 171 134
-17.557 1.894 0.536 194 174 139
-17.555 1.816 0.727 188 171 128
-17.559 1.929 0.513 198 180 142
-17.556 1.885 0.536 194 174 139
-17.553 1.824 0.619 194 167 137
-17.554 1.830 0.601 191 174 131
-17.559 1.900 0.608 197 175 138
-17.558 1.878 0.618 195 176 136
-17.560 1.916 0.583 199 177 138
-17.556 1.866 0.584 193 173 136
-17.558 1.866 0.668 193 174 134
-17.556 1.861 0.597 195 173 136
-17.559 1.871 0.693 193 174 131
-17.557 1.862 0.629 195 173 134
-17.560 1.917 0.601 196 172 138
-17.553 1.818 0.631 184 170 131
-17.552 1.834 0.515 191 171 136
-17.555 1.826 0.671 187 172 129
-17.558 1.855 0.722 191 173 133
-17.559 1.911 0.546 197 177 140
-17.553 1.845 0.495 190 172 136
-17.561 1.965 0.490 201 182 139
-17.562 1.957 0.522 205 183 144
-17.553 1.822 0.595 191 172 139
-17.557 1.903 0.474 195 177 137
-17.555 1.866 0.530 192 174 138
-17.557 1.913 0.474 196 179 136
-17.554 1.866 0.508 192 173 140
-17.558 1.911 0.542 197 177 140
-17.551 1.826 0.474 189 171 135
-17.556 1.863 0.623 195 173 134
-17.559 1.928 0.487 197 180 137
-17.555 1.817 0.716 186 171 128
-17.558 1.875 0.668 192 173 133
-17.556 1.881 0.512 194 175 143
-17.561 1.944 0.537 201 181 144
-17.561 1.949 0.533 202 182 145
-17.557 1.893 0.555 197 177 140
-17.555 1.871 0.538 193 175 139
-17.559 1.888 0.661 193 171 134
-17.552 1.819 0.544 184 173 143
-17.557 1.845 0.717 187 172 133
-17.552 1.821 0.551 187 172 141
-17.558 1.858 0.714 191 173 133
-17.558 1.893 0.609 198 176 139
-17.560 1.944 0.517 203 181 144
-17.558 1.881 0.648 193 171 134
-17.559 1.930 0.477 196 178 138
-17.555 1.848 0.595 194 172 135
-17.556 1.855 0.632 196 172 134
-17.554 1.840 0.588 193 171 134
-17.560 1.928 0.539 198 178 141
-17.559 1.936 0.472 198 179 136
-17.554 1.832 0.635 192 170 129
-17.557 1.872 0.607 197 173 135
-17.559 1.915 0.560 198 178 141
-17.559 1.937 0.474 197 179 139
-17.555 1.818 0.727 181 173 136
-17.558 1.916 0.523 198 178 143
-17.556 1.857 0.645 195 171 133
-17.552 1.833 0.518 192 172 137
-17.555 1.865 0.537 193 175 139
-17.553 1.830 0.586 191 174 131
-17.557 1.868 0.641 197 173 135
-17.557 1.867 0.651 196 172 134
-17.557 1.885 0.554 196 176 139
-17.556 1.896 0.492 194 176 138
-17.557 1.816 0.810 191 167 121
-17.555 1.857 0.557 192 174 138
-17.559 1.925 0.498 197 179 139
-17.552 1.821 0.543 186 173 141
-17.555 1.876 0.486 198 176 139
-17.559 1.917 0.526 199 179 144
-17.560 1.927 0.571 198 180 140
-17.551 1.827 0.494 192 173 133
-17.559 1.915 0.567 198 178 141
-17.557 1.859 0.667 193 173 136
-17.557 1.876 0.589 194 174 137
-17.554 1.823 0.642 189 170 137
-17.557 1.855 0.658 193 171 132
-17.557 1.865 0.643 197 171 134
-17.554 1.856 0.546 193 175 139
-17.555 1.882 0.502 193 175 139
-17.558 1.890 0.580 195 176 136
-17.556 1.826 0.723 188 171 128
-17.559 1.897 0.634 189 169 136
-17.552 1.827 0.531 194 171 137
-17.554 1.875 0.471 194 176 136
-17.559 1.898 0.628 191 171 136
-17.557 1.845 0.696 190 173 130
-17.556 1.824 0.740 187 168 125
-17.553 1.851 0.504 193 175 139
-17.556 1.859 0.612 196 172 134
-17.558 1.901 0.569 197 179 139
-17.556 1.849 0.627 196 172 134
-17.559 1.888 0.636 192 169 135
-17.559 1.884 0.668 194 172 131
-17.555 1.831 0.652 192 170 129
-17.557 1.846 0.696 190 173 130
-17.557 1.841 0.739 186 171 130
-17.560 1.931 0.562 199 180 140
